-21 -269 -1382
-21 -269 -1378
-22 -268 -1375
-22 -267 -1371
-22 -252 -1293
-22 -251 -1290
-22 -251 -1287
-23 -264 -1358
-24 -263 -1355
-24 -263 -1351
-24 -262 -1348
-25 -261 -1345
-25 -260 -1342
-21 -198 -1020
-21 -198 -1018
-24 -224 -1152
-21 -211 -1091
-22 -211 -1089
-22 -210 -1087
-22 -210 -1085
-23 -218 -1128
-23 -218 -1126
-24 -217 -1123
-24 -216 -1121
-24 -216 -1119
-24 -215 -1117
-23 -190 -987
-23 -190 -985
-23 -190 -983
-23 -184 -952
-23 -183 -950
-23 -183 -948
-24 -182 -947
-24 -188 -975
-25 -187 -973
-25 -187 -972
-25 -186 -970
-25 -186 -968
-26 -186 -967
-26 -185 -965
-25 -184 -959
-26 -184 -957
-185 -293 -1490
-35 59 258
-39 59 264
-77 68 361
-78 69 366
-30 63 291
-31 66 305
-33 71 329
-34 71 331
-34 73 337
-34 72 334
-34 72 335
-33 72 336
-33 71 333
-32 71 331
-32 71 331
-32 71 332
-33 73 341
-32 72 334
-34 72 337
-31 72 332
-31 72 333
-29 71 329
-27 66 307
-12 63 277
-25 69 318
-17 62 279
-18 62 280
-31 72 337
-33 74 347
-29 63 296
-31 72 338
-50 76 374
-34 79 373
-33 79 370
-33 80 375
-33 80 375
-32 79 371
-33 81 380
-33 81 381
-33 81 381
-33 81 381
-32 81 381
-32 79 373
-33 83 391
-32 83 390
-32 83 390
-33 84 392
-34 84 396
-32 84 396
-32 85 396
-31 80 375
-33 86 404
-33 86 404
-32 86 403
-27 69 325
-32 84 395
-30 76 361
-33 89 417
-33 89 418
-33 90 423
-33 90 424
-33 90 424
-34 92 436
-31 91 427
-31 91 427
-33 93 437
-33 93 438
-33 93 438
-32 89 421
-33 94 446
-32 89 423
-33 94 448
-33 95 448
-33 94 447
-33 94 448
-33 97 460
-33 97 460
-33 97 460
-33 97 462
-34 99 469
-33 99 470
-25 65 311
-32 95 451
-34 101 480
-33 101 481
-33 102 485
-33 102 485
-33 102 485
-33 105 501
-33 104 494
-33 104 494
-33 104 495
-33 106 503
-33 106 505
-33 106 505
-32 102 486
-32 102 486
-33 109 519
-33 109 519
-33 110 524
-33 109 520
-33 109 521
-33 112 534
-33 112 535
-33 112 535
-33 112 536
-33 112 536
-32 109 524
-32 110 525
-34 118 562
-33 118 563
-33 118 564
-33 118 567
-33 118 565
-33 118 565
-33 118 566
-33 121 580
-33 121 581
-33 121 581
-33 123 592
-32 119 569
-32 119 570
-32 119 571
-32 119 571
-32 119 572
-26 92 449
-30 120 580
-31 130 626
-31 130 627
-31 130 627
-31 133 642
-31 133 643
-31 133 644
-31 133 645
-30 130 631
-30 131 632
-30 131 633
-28 121 587
-28 121 588
-28 121 589
-33 152 736
-33 152 737
-32 152 738
-32 153 739
-31 146 709
-31 146 710
-31 147 711
-30 147 712
-31 153 745
-31 154 746
-31 154 747
-31 154 748
-31 154 749
-30 154 750
-32 170 825
-32 170 826
-32 170 827
-31 162 790
-30 162 791
-30 163 792
-31 167 813
-30 167 814
-31 171 836
-31 172 837
-30 172 838
-30 172 840
-30 178 871
-30 179 873
-32 192 939
-30 182 891
-30 183 893
-30 183 894
-30 183 896
-30 188 921
-30 194 949
-30 194 951
-30 195 952
-30 195 954
-29 195 956
-28 182 891
-32 206 1012
-33 223 1096
-32 210 1032
-31 210 1034
-31 211 1036
-31 211 1038
-31 211 1040
-32 226 1110
-32 226 1112
-30 225 1108
-30 226 1110
-30 226 1113
-29 227 1115
-27 200 988
-32 262 1288
-32 262 1291
-31 263 1295
-29 245 1207
-29 245 1209
-30 255 1257
-30 265 1307
-30 266 1311
-29 266 1314
-30 268 1326
-30 269 1330
-28 268 1324
-29 270 1336
-29 271 1340
-33 322 1592
-29 293 1450
-28 294 1454
-28 295 1458
-29 309 1527
-29 324 1603
-29 325 1608
-30 328 1626
-29 329 1631
-29 330 1636
-29 331 1641
-21 210 1045
-20 210 1047
-20 210 1049
-19 198 990
-19 199 992
-28 372 1852
-28 374 1858
-27 375 1865
-29 422 2098
-33 432 2153
-32 434 2161
-31 435 2170
-39 584 2910
-38 587 2926
-37 590 2942
-37 593 2959
-29 443 2215
-28 445 2225
-28 447 2234
-17 205 1031
-17 219 1100
-26 452 2262
-23 401 2008
-16 220 1107
-18 298 1497
-15 221 1111
-41 987 4937
-94 115 670
155 -4547 -22769
142 -4361 -21847
73 -2808 -14058
53 -3180 -15896
47 -3087 -15441
339 -21022 -105214
257 -17582 -88033
198 -15109 -75679
10 -1545 -7738
8 -1523 -7628
6 -1501 -7522
3 -1480 -7419
1 -1460 -7319
0 -1439 -7221
-2 -1420 -7126
-5 -1000 -5021
-7 -991 -4974
-8 -1364 -6855
-10 -1347 -6770
-12 -1330 -6686
-14 -1313 -6605
-11 -516 -2593
-12 -513 -2581
-12 -511 -2569
-15 -728 -3667
-5 -672 -3395
-6 -667 -3373
-5 -1551 -7853
6 -1780 -9035
-10 -1926 -9758
-9 -548 -2773
-10 -545 -2759
-11 -542 -2745
-12 -638 -3234
-13 -581 -2945
-13 -495 -2511
-13 -493 -2500
-13 -453 -2299
-14 -451 -2289
-15 -449 -2280
-15 -400 -2031
-16 -423 -2146
-16 -421 -2138
-17 -419 -2130
-17 -394 -2001
-22 -702 -3581
1103 -1805 -10432
-26 -231 -1162
-52 -418 -2091
-16 -338 -1724
-18 -340 -1734
-19 -339 -1728
-18 -313 -1594
-19 -312 -1589
-19 -311 -1585
-20 -310 -1580
-21 -333 -1702
-22 -332 -1697
-22 -331 -1691
-22 -330 -1686
-23 -329 -1681
-21 -274 -1400
-21 -273 -1397
-21 -272 -1393
-22 -272 -1390
-22 -271 -1386
-22 -255 -1306
-22 -254 -1303
-22 -254 -1300
-24 -268 -1372
-24 -267 -1369
-24 -266 -1366
-25 -265 -1362
-25 -265 -1359
-25 -264 -1356
-21 -200 -1028
-22 -200 -1027
-24 -226 -1163
-23 -216 -1112
-24 -216 -1110
-24 -215 -1108
-24 -215 -1106
-25 -224 -1151
-25 -223 -1149
-26 -222 -1146
-26 -222 -1144
-26 -221 -1141
-27 -221 -1139
-25 -195 -1004
-25 -194 -1003
-23 -192 -991
-23 -185 -959
-23 -185 -957
-24 -185 -955
-24 -184 -954
-25 -190 -982
-25 -189 -981
-25 -189 -979
-25 -188 -977
-26 -188 -976
-26 -188 -974
-26 -187 -972
-26 -187 -970
-26 -185 -964
48 89 463
-38 59 263
-36 59 260
-38 59 263
-78 69 363
-78 69 363
-33 67 309
-31 63 292
-33 71 328
-33 72 334
-33 72 331
-32 72 331
-109 85 463
-33 73 339
-33 73 339
-32 71 330
-33 71 332
-33 72 333
-32 72 333
-32 72 334
-31 72 332
-30 72 331
-28 71 327
-10 65 281
-26 69 316
-20 67 303
-19 62 282
-31 72 337
-32 72 339
-31 72 337
-31 72 337
-43 75 361
-32 73 340
-33 79 369
-32 79 370
-32 79 370
-33 81 379
-33 81 379
-33 81 379
-33 81 380
-33 81 380
-32 79 370
-32 79 372
-33 83 390
-33 83 390
-33 83 391
-33 84 391
-33 85 396
-33 85 396
-33 85 397
-32 84 392
-33 86 402
-33 86 403
-32 86 403
-32 84 393
-28 69 327
-30 78 367
-9 60 270
-34 89 419
-32 89 419
-32 89 420
-31 88 414
-31 91 425
-32 91 427
-32 92 433
-31 92 432
-31 92 432
-32 92 433
-30 88 416
-30 89 417
-33 94 446
-33 94 446
-33 94 446
-33 94 446
-33 94 446
-33 97 458
-33 97 458
-33 97 459
-33 97 459
-33 99 467
-33 95 452
-25 65 311
-30 90 425
-33 101 477
-30 90 426
-33 101 478
-33 102 483
-33 102 484
-33 104 491
-33 104 492
-33 104 492
-33 105 500
-33 106 501
-33 106 501
-33 106 502
-32 101 483
-32 102 484
-33 108 515
-33 108 516
-33 109 520
-32 109 517
-32 109 517
-33 112 532
-33 112 532
-33 112 533
-33 112 533
-33 112 534
-32 109 522
-32 109 522
-34 117 560
-33 117 560
-33 118 561
-33 118 562
-33 118 562
-33 118 563
-33 121 577
-33 121 577
-33 121 578
-33 121 579
-33 123 590
-33 121 580
-32 118 567
-32 118 568
-32 119 569
-23 79 384
-33 130 626
-31 129 623
-31 129 624
-31 130 624
-31 133 639
-31 132 638
-31 133 641
-31 133 642
-30 130 626
-29 130 627
-29 130 628
-28 121 583
-27 121 583
-32 151 728
-32 151 729
-32 151 730
-32 152 731
-32 152 735
-31 146 705
-31 146 706
-31 146 707
-31 153 739
-31 153 740
-31 153 742
-31 153 743
-31 153 744
-30 154 745
-30 154 746
-32 169 819
-32 169 821
-31 162 784
-31 162 785
-30 162 786
-30 162 788
-30 162 789
-30 162 790
-31 171 830
-30 171 831
-30 171 833
-30 171 834
-30 178 865
-32 191 930
-32 191 932
-30 182 885
-30 182 886
-30 182 888
-30 187 913
-30 188 915
-30 193 942
-30 193 944
-30 194 945
-29 194 947
-29 194 949
-27 181 884
-30 203 994
-28 195 954
-29 207 1013
-29 207 1014
-29 208 1016
-29 208 1018
-28 208 1020
-30 222 1088
-29 223 1090
-29 223 1092
-29 223 1094
-28 224 1097
-28 224 1099
-26 199 975
-31 258 1267
-33 262 1287
-32 263 1290
-30 244 1203
-30 245 1205
-30 245 1208
-31 265 1303
-31 265 1306
-30 266 1309
-30 266 1313
-30 267 1316
-29 268 1319
-29 268 1323
-29 269 1326
-32 319 1572
-30 293 1445
-28 291 1438
-28 292 1442
-27 293 1446
-29 321 1583
-28 322 1588
-28 322 1592
-28 323 1597
-29 327 1615
-28 327 1620
-21 208 1036
-20 209 1038
-20 209 1040
-19 197 982
-28 367 1819
-30 412 2040
-27 369 1831
-29 415 2056
-29 416 2064
-28 418 2072
-36 436 2173
-39 570 2830
-38 573 2845
-37 576 2861
-37 578 2876
-33 573 2850
-28 437 2178
-26 434 2162
-27 440 2196
-17 217 1088
-16 204 1025
-16 205 1027
-16 218 1095
-16 219 1097
-42 937 4671
-15 219 1102
-85 110 636
-1973 52473 261954
191 -5545 -27682
177 -6084 -30362
83 -3163 -15787
76 -3072 -15339
70 -2986 -14915
412 -16968 -84820
841 -56227 -280693
497 -36965 -184605
12 -1649 -8234
9 -1624 -8110
6 -1599 -7990
4 -1575 -7874
2 -1552 -7761
0 -1530 -7651
-2 -1508 -7545
-5 -1044 -5225
-7 -1034 -5175
-8 -1446 -7242
-10 -1426 -7146
-12 -1407 -7053
-14 -1388 -6963
-11 -528 -2646
-12 -526 -2633
-12 -523 -2621
-16 -752 -3775
-14 -517 -2596
-18 -741 -3723
27 -2548 -12898
-17 -557 -2796
-19 -657 -3305
-16 -588 -2960
-17 -585 -2944
-18 -581 -2928
-24 -705 -3553
-21 -539 -2713
-19 -528 -2664
-22 -533 -2686
-14 -463 -2341
-14 -461 -2331
-15 -459 -2321
-15 -408 -2063
-16 -431 -2183
-16 -429 -2174
-16 -403 -2040
-38 -1306 -6636
-33 -1248 -6348
-29 -240 -1196
-34 -247 -1230
-24 -363 -1834
-18 -347 -1763
-19 -346 -1758
-19 -345 -1752
-19 -318 -1614
-19 -317 -1609
-19 -316 -1604
-20 -314 -1600
-21 -339 -1725
-22 -338 -1719
-22 -336 -1714
-23 -335 -1709
-23 -334 -1703
-21 -278 -1415
-21 -277 -1412
-22 -276 -1408
-22 -275 -1405
-21 -259 -1323
-22 -259 -1320
-22 -258 -1317
-22 -257 -1314
-24 -271 -1387
-24 -271 -1384
-24 -270 -1380
-25 -269 -1377
-25 -268 -1373
-25 -268 -1370
-21 -203 -1037
-22 -202 -1035
-24 -229 -1173
-23 -219 -1122
-24 -218 -1120
-24 -218 -1118
-24 -217 -1115
-25 -226 -1161
-26 -226 -1159
-26 -225 -1156
-26 -225 -1154
-26 -224 -1152
-27 -223 -1149
-25 -197 -1012
-25 -197 -1011
-25 -196 -1009
-25 -190 -975
-25 -189 -974
-25 -189 -972
-26 -188 -970
-26 -194 -1000
-27 -194 -998
-27 -193 -996
-27 -193 -994
-27 -192 -993
-26 -190 -981
-26 -189 -980
-26 -189 -978
-27 -188 -976
93 162 831
-38 59 262
-38 59 262
-38 59 263
-77 69 360
-77 69 361
-31 66 305
-36 84 382
-32 71 326
-33 72 333
-33 72 333
-33 72 334
-34 73 336
-33 73 338
-33 73 338
-29 62 289
-29 63 292
-35 77 357
-43 74 353
-32 72 333
-30 72 330
-28 71 328
-29 71 329
-12 68 298
-24 66 302
-22 68 310
-18 62 279
-18 61 276
-12 68 300
-31 72 336
-31 72 336
-31 72 337
-32 73 340
-34 80 371
-32 79 369
-32 79 369
-33 81 378
-33 81 378
-33 81 379
-32 81 379
-32 81 379
-32 79 371
-33 83 389
-33 83 389
-33 83 389
-32 83 390
-33 85 395
-33 85 395
-34 85 399
-33 86 401
-33 86 401
-32 86 401
-32 84 391
-32 84 392
-32 84 392
-26 63 300
-32 88 414
-34 89 418
-32 88 415
-32 88 415
-33 91 426
-32 91 427
-32 91 427
-33 92 433
-33 92 433
-32 91 428
-31 89 418
-33 94 441
-32 94 442
-32 94 442
-32 94 443
-32 94 443
-32 94 443
-34 97 460
-32 97 456
-34 97 460
-34 97 461
-34 99 468
-30 94 444
-31 90 424
-32 90 426
-34 101 478
-34 101 478
-33 101 476
-34 102 485
-33 105 496
-33 104 489
-33 104 490
-33 104 490
-33 105 498
-33 105 499
-33 105 499
-32 101 480
-31 101 481
-33 108 512
-33 108 513
-33 108 513
-33 109 518
-32 108 515
-32 109 515
-33 111 528
-33 111 529
-32 111 529
-32 109 517
-32 112 530
-31 109 518
-31 109 519
-33 117 557
-33 117 558
-33 117 559
-33 117 559
-33 117 560
-33 118 560
-33 120 574
-33 121 575
-33 121 575
-33 123 586
-33 123 587
-32 118 564
-32 118 565
-32 118 565
-26 91 440
-26 92 446
-23 79 383
-33 130 623
-32 130 624
-32 130 625
-32 130 625
-32 133 640
-31 132 637
-32 133 642
-31 133 638
-30 130 625
-30 130 626
-28 120 581
-28 121 582
-28 121 582
-32 151 724
-32 151 725
-32 151 729
-32 152 730
-32 152 731
-31 145 701
-31 146 702
-32 147 709
-31 152 735
-31 152 736
-30 152 734
-30 152 735
-30 153 736
-30 153 738
-30 153 741
-32 168 814
-32 169 815
-31 161 779
-30 161 780
-30 161 781
-30 162 783
-30 162 784
-31 170 823
-30 170 821
-29 170 822
-29 170 824
-29 170 825
-30 177 859
-32 190 923
-31 191 925
-30 181 879
-30 181 880
-29 181 882
-30 186 907
-29 182 885
-30 192 935
-30 192 937
-30 193 938
-29 193 940
-28 180 877
-27 180 878
-29 202 986
-31 219 1065
-29 206 1004
-29 206 1006
-29 207 1008
-29 207 1010
-28 207 1012
-29 221 1078
-29 221 1081
-29 222 1083
-29 222 1085
-28 222 1087
-26 197 966
-25 198 968
-30 257 1254
-28 239 1172
-28 240 1174
-28 240 1177
-28 241 1179
-27 241 1182
-28 260 1273
-28 260 1276
-28 261 1279
-27 261 1282
-27 262 1285
-29 266 1306
-29 266 1309
-29 267 1312
-27 248 1222
-30 290 1428
-29 291 1432
-29 292 1436
-29 292 1440
-30 320 1576
-30 321 1581
-29 322 1586
-29 323 1590
-29 323 1595
-23 236 1166
-20 207 1028
-20 208 1030
-20 208 1032
-19 196 974
-28 363 1793
-28 364 1799
-29 408 2016
-19 210 1042
-28 411 2031
-28 412 2039
-34 542 2679
-33 545 2693
-32 547 2707
-32 550 2720
-31 552 2734
-30 555 2748
-24 422 2095
-24 424 2104
-23 426 2112
-8 194 964
-5 192 947
-22 295 1472
-20 272 1360
-16 217 1088
-30 233 1182
-35 894 4442
-17 -336 -1640
304 -9386 -46664
-440 13575 67539
235 -7994 -39776
96 -3617 -18002
88 -3499 -17421
80 -3389 -16876
1236 -50248 -250443
792 -34307 -171055
28 -1646 -8205
25 -1621 -8082
22 -1597 -7963
19 -1573 -7848
17 -1550 -7736
14 -1527 -7627
12 -1506 -7521
9 -1484 -7418
2 -1033 -5164
-7 -1080 -5392
-8 -1537 -7675
-11 -1515 -7568
-13 -1493 -7463
-15 -1472 -7362
-11 -541 -2702
-12 -538 -2688
-12 -535 -2675
-16 -777 -3889
-14 -530 -2649
-12 -4160 -20916
-46 -5667 -28482
-17 -571 -2859
-11 -543 -2727
-12 -638 -3209
-12 -582 -2925
-13 -578 -2909
-15 -688 -3464
-14 -529 -2661
-15 -526 -2648
-16 -523 -2635
-16 -479 -2413
-16 -477 -2402
-18 -427 -2150
-19 -453 -2280
-20 -451 -2271
-20 -448 -2261
-25 -458 -2304
-41 -837 -4221
-13 -219 -1102
-17 -225 -1131
-17 -224 -1128
-18 -224 -1126
-25 -368 -1854
-25 -366 -1848
-26 -365 -1841
-25 -335 -1689
-25 -333 -1684
-25 -332 -1679
-20 -319 -1620
-21 -344 -1748
-22 -343 -1742
-22 -342 -1737
-23 -341 -1732
-23 -340 -1726
-21 -282 -1431
-21 -281 -1427
-22 -280 -1424
-22 -279 -1420
-22 -263 -1337
-22 -262 -1333
-22 -261 -1330
-23 -261 -1327
-24 -275 -1402
-24 -274 -1399
-25 -274 -1395
-25 -273 -1392
-25 -272 -1388
-21 -205 -1047
-21 -205 -1045
-22 -204 -1043
-24 -232 -1184
-24 -222 -1132
-24 -221 -1130
-24 -221 -1127
-24 -220 -1125
-25 -229 -1172
-26 -228 -1169
-26 -228 -1167
-26 -227 -1164
-27 -227 -1162
-27 -226 -1160
-25 -199 -1020
-25 -199 -1018
-25 -198 -1017
-25 -192 -983
-25 -191 -981
-26 -191 -979
-26 -190 -978
-27 -196 -1008
-27 -196 -1006
-27 -195 -1004
-27 -195 -1002
-28 -194 -1000
-28 -194 -999
-28 -194 -997
-28 -193 -995
-26 -189 -979
33 66 343
-38 59 262
-38 59 262
-38 59 262
-76 69 361
-76 68 355
-31 66 306
-33 68 314
-33 71 326
-32 71 325
-32 72 331
-32 72 331
-32 71 328
-32 71 328
-32 71 328
-31 71 326
-32 72 329
-32 73 336
-86 81 422
-29 63 291
-29 63 292
-33 75 346
-33 75 346
-32 72 333
-28 71 327
-30 72 330
-29 73 336
-29 73 335
-24 68 310
-18 68 304
-17 61 273
-13 69 301
-31 72 335
-31 72 336
-30 72 337
-34 80 371
-32 79 368
-33 81 377
-32 81 376
-32 81 377
-32 81 377
-32 81 377
-31 79 369
-33 83 388
-33 83 388
-32 83 388
-32 83 389
-33 85 394
-32 85 394
-32 85 393
-33 86 399
-34 86 403
-32 86 400
-32 86 400
-31 64 307
-26 65 306
-33 88 412
-32 88 411
-9 82 360
-9 83 364
-32 90 419
-32 88 414
-33 91 425
-32 91 425
-32 91 425
-33 92 432
-32 92 432
-32 92 432
-33 94 439
-32 94 440
-32 94 440
-32 94 441
-32 94 441
-32 94 441
-33 97 453
-32 97 453
-32 97 454
-32 97 454
-32 97 455
-32 98 462
-32 96 449
-30 89 421
-30 89 421
-32 100 473
-32 101 476
-32 102 478
-33 105 493
-32 103 486
-33 104 489
-31 103 485
-31 104 491
-31 105 492
-31 105 492
-30 101 474
-30 101 475
-31 107 506
-31 107 505
-32 109 513
-32 109 513
-30 108 507
-33 111 527
-33 111 527
-33 111 528
-33 111 528
-32 109 515
-32 109 516
-31 109 516
-31 109 517
-33 117 553
-27 91 432
-32 117 554
-33 117 557
-33 117 557
-33 120 569
-32 120 570
-32 120 570
-32 120 571
-32 122 582
-32 122 582
-31 118 560
-31 118 561
-32 118 563
-24 92 440
-30 128 611
-30 128 612
-30 128 613
-30 128 613
-30 131 628
-30 131 628
-30 132 629
-30 132 630
-29 129 617
-29 129 618
-29 129 619
-27 120 575
-27 120 576
-27 120 576
-31 150 717
-31 150 718
-31 150 719
-31 150 720
-29 144 691
-29 144 692
-29 144 693
-29 144 694
-30 151 725
-30 151 726
-28 150 722
-31 152 734
-30 153 735
-30 153 736
-30 153 737
-32 168 809
-32 168 810
-30 160 774
-30 161 775
-30 161 777
-30 161 778
-29 161 776
-30 169 814
-30 169 816
-29 169 817
-29 169 818
-22 114 555
-29 176 850
-31 189 912
-30 189 914
-29 179 869
-29 180 870
-29 180 872
-28 180 873
-29 190 922
-29 191 924
-29 191 925
-28 191 927
-28 191 929
-27 178 867
-26 179 868
-31 217 1054
-31 217 1056
-29 205 997
-29 205 999
-29 206 1000
-28 206 1002
-29 219 1067
-29 220 1069
-29 220 1071
-29 220 1074
-28 221 1076
-28 221 1078
-26 196 959
-25 197 961
-25 197 962
-28 238 1161
-28 238 1163
-28 239 1166
-27 239 1169
-27 240 1171
-28 258 1260
-28 258 1263
-28 259 1266
-27 260 1269
-27 260 1272
-27 261 1275
-26 261 1279
-26 262 1282
-24 244 1195
-27 284 1392
-26 285 1396
-26 286 1400
-26 286 1403
-27 313 1532
-29 318 1561
-29 319 1566
-29 319 1571
-28 320 1575
-22 234 1155
-20 206 1019
-20 207 1021
-20 207 1023
-19 195 967
-26 393 1931
-27 360 1774
-19 208 1031
-18 209 1033
-28 406 1999
-34 530 2611
-33 533 2624
-32 535 2637
-32 537 2650
-31 540 2664
-30 542 2677
-30 545 2691
-24 417 2061
-16 212 1054
-15 200 994
-15 213 1058
-14 200 998
-17 285 1413
-36 291 1466
-30 231 1169
-30 232 1171
-16 -339 -1652
-424 12015 59554
-457 13504 66960
-292 8918 44240
125 -4392 -21785
114 -4220 -20939
103 -4061 -20157
-939 35585 176778
-1317 52911 262949
-2415 103155 512831
30 -1764 -8765
27 -1735 -8625
24 -1707 -8490
21 -1680 -8359
18 -1654 -8232
16 -1629 -8108
13 -1604 -7989
5 -1091 -5434
3 -1080 -5380
1 -1069 -5327
3 -1512 -7544
1 -1491 -7440
0 -1470 -7340
-3 -1450 -7242
-6 -538 -2685
-7 -536 -2672
-8 -533 -2659
-9 -530 -2646
-13 -1357 -6789
-37 -5705 -28578
-11 -571 -2855
-19 -702 -3506
-14 -672 -3367
-12 -657 -3291
-12 -597 -2993
-13 -593 -2976
-15 -709 -3560
-17 -549 -2754
-15 -539 -2704
-16 -536 -2690
-16 -490 -2459
-16 -487 -2448
-17 -485 -2437
-17 -456 -2295
-18 -454 -2285
-18 -452 -2276
-19 -450 -2266
-5 102 526
-13 -210 -1053
-14 -223 -1121
-17 -227 -1138
-18 -226 -1136
-22 -306 -1540
-25 -373 -1874
-26 -371 -1868
-25 -340 -1712
-25 -339 -1706
-26 -338 -1701
-26 -337 -1696
-28 -364 -1837
-29 -363 -1831
-29 -362 -1825
-29 -360 -1819
-30 -359 -1813
-26 -295 -1490
-27 -294 -1486
-27 -293 -1482
-27 -293 -1478
-22 -266 -1351
-22 -266 -1347
-22 -265 -1344
-24 -280 -1421
-24 -279 -1418
-24 -278 -1414
-25 -277 -1410
-25 -277 -1407
-25 -276 -1403
-21 -208 -1056
-22 -207 -1054
-22 -207 -1052
-24 -235 -1195
-24 -224 -1142
-24 -224 -1140
-24 -223 -1137
-25 -232 -1185
-26 -232 -1182
-26 -231 -1180
-26 -231 -1177
-26 -230 -1175
-27 -229 -1173
-27 -229 -1170
-25 -201 -1028
-25 -201 -1027
-25 -200 -1025
-25 -194 -990
-25 -193 -988
-26 -193 -987
-27 -199 -1017
-27 -198 -1015
-27 -198 -1014
-27 -197 -1012
-28 -197 -1010
-28 -196 -1008
-28 -196 -1006
-28 -196 -1005
-28 -195 -1003
-25 -186 -956
-38 59 261
-38 59 261
-78 70 363
-75 68 352
-74 68 352
-31 66 304
-32 70 319
-33 72 331
-31 62 288
-33 72 332
-34 73 334
-29 61 280
-34 72 331
-30 61 281
-33 71 329
-32 73 335
-32 73 335
-31 71 326
-32 74 341
-32 76 346
-32 74 341
-31 73 336
-32 75 344
-32 76 348
-34 75 349
-29 72 329
-28 71 327
-28 71 327
-28 71 327
-12 68 296
-24 65 295
-21 62 279
-17 61 272
-12 68 299
-31 72 335
-30 72 335
-30 72 335
-32 79 367
-32 79 367
-32 81 376
-32 81 375
-31 79 366
-32 81 376
-32 83 385
-33 83 386
-32 83 387
-32 83 387
-32 83 387
-32 84 392
-32 84 392
-26 64 300
-32 86 397
-32 86 398
-32 86 398
-31 83 388
-27 69 324
-26 64 302
-33 88 410
-32 88 411
-32 88 411
-32 89 416
-32 89 416
-32 89 416
-32 88 412
-32 88 413
-32 91 424
-32 91 423
-32 92 429
-32 92 429
-32 92 430
-33 94 438
-32 94 437
-32 94 439
-32 94 439
-32 95 444
-32 94 440
-32 97 451
-32 97 452
-32 97 452
-32 97 453
-32 97 453
-32 97 454
-31 94 443
-30 89 419
-30 89 420
-30 89 420
-32 101 476
-53 96 476
-32 103 484
-32 101 473
-6 94 415
-6 95 421
-32 105 493
-31 105 491
-31 105 491
-30 101 474
-32 108 506
-32 108 507
-32 109 511
-32 109 512
-32 109 512
-32 109 513
-32 111 522
-32 111 522
-32 111 523
-32 113 532
-32 113 532
-31 108 512
-31 108 513
-27 90 429
-28 91 433
-28 91 434
-34 117 557
-34 117 558
-33 117 555
-33 120 568
-32 120 567
-32 120 568
-33 120 570
-32 122 579
-32 120 570
-31 117 558
-32 118 560
-24 91 438
-24 92 439
-29 118 565
-30 128 608
-30 128 609
-30 128 610
-30 128 611
-30 131 625
-30 131 625
-29 128 613
-29 131 627
-29 129 614
-29 129 615
-29 129 616
-27 120 572
-27 120 573
-27 120 574
-31 149 713
-31 149 714
-31 150 715
-30 150 716
-29 144 688
-29 144 689
-29 144 690
-29 144 691
-30 151 721
-29 151 722
-29 151 723
-29 151 724
-29 151 725
-29 151 726
-30 166 796
-30 166 797
-30 166 798
-29 159 763
-29 159 765
-28 159 766
-28 159 767
-28 160 768
-29 168 806
-29 168 807
-28 168 808
-28 168 810
-32 189 913
-32 189 914
-30 188 907
-29 179 863
-29 179 864
-28 179 866
-28 179 867
-29 189 915
-29 190 917
-29 191 923
-29 191 925
-29 191 926
-26 178 861
-26 178 862
-30 215 1040
-31 216 1048
-28 203 984
-28 203 986
-28 204 988
-27 204 989
-28 217 1052
-28 217 1055
-28 218 1057
-27 218 1059
-27 219 1061
-28 220 1069
-25 195 952
-25 196 953
-25 196 955
-30 254 1233
-28 237 1153
-28 237 1155
-27 238 1158
-28 256 1245
-28 256 1248
-28 257 1251
-27 257 1254
-27 258 1257
-27 258 1260
-26 259 1263
-26 259 1266
-26 260 1269
-24 242 1184
-27 282 1377
-26 283 1381
-26 283 1384
-26 284 1388
-27 310 1514
-26 311 1518
-26 311 1523
-26 312 1527
-25 313 1532
-19 203 999
-18 204 1001
-18 204 1003
-18 204 1005
-17 193 950
-26 388 1902
-27 356 1750
-19 207 1023
-18 208 1025
-18 208 1027
-18 208 1029
-33 523 2571
-32 526 2584
-31 528 2596
-31 530 2609
-30 533 2622
-24 410 2021
-16 211 1043
-16 211 1045
-15 211 1047
-15 199 988
-14 199 990
-14 212 1054
-14 213 1056
-14 213 1058
-14 213 1060
-23 92 475
51 1829 8909
-162 5844 28833
-162 6172 30467
-162 6541 32296
152 -7225 -35672
133 -6774 -33457
115 -6376 -31501
-162 8592 42490
-162 9324 46128
-162 10193 50444
20 -2101 -10390
17 -2060 -10194
14 -2021 -10005
10 -1984 -9824
7 -1948 -9648
4 -1913 -9479
1 -1879 -9316
-3 -1214 -6016
-5 -1200 -5950
-6 -1186 -5886
-8 -1755 -8716
-11 -1727 -8578
0 -1564 -7785
-2 -1541 -7675
-6 -551 -2743
-7 -548 -2729
-8 -546 -2715
-24 -1574 -7835
-7 -1433 -7155
-15 -553 -2749
-11 -586 -2920
-13 -697 -3479
-14 -693 -3457
-14 -627 -3129
-15 -623 -3112
-16 -619 -3094
-19 -746 -3729
-17 -563 -2815
-18 -560 -2800
-22 -730 -3655
-18 -507 -2539
-19 -505 -2527
-17 -496 -2484
-17 -466 -2336
-18 -464 -2326
-19 -462 -2316
-22 -572 -2871
-29 -283 -1402
-13 -212 -1061
-22 -479 -2408
-14 -225 -1129
-18 -229 -1146
-18 -229 -1143
-26 -379 -1902
-26 -378 -1896
-25 -346 -1735
-25 -344 -1729
-26 -343 -1724
-26 -342 -1718
-28 -371 -1863
-29 -369 -1857
-29 -368 -1851
-30 -367 -1845
-30 -365 -1839
-27 -300 -1508
-27 -299 -1504
-27 -298 -1499
-28 -297 -1495
-27 -278 -1403
-27 -278 -1400
-27 -277 -1396
-29 -293 -1479
-29 -292 -1475
-30 -291 -1472
-30 -291 -1468
-31 -290 -1464
-31 -289 -1460
-25 -215 -1087
-25 -215 -1085
-26 -214 -1083
-29 -244 -1236
-24 -227 -1152
-24 -226 -1150
-24 -226 -1147
-25 -235 -1196
-26 -235 -1193
-26 -234 -1191
-26 -233 -1188
-27 -233 -1186
-27 -232 -1183
-25 -204 -1039
-25 -203 -1037
-25 -203 -1035
-26 -203 -1033
-25 -196 -998
-26 -195 -996
-26 -195 -994
-27 -201 -1025
-27 -200 -1023
-27 -200 -1022
-27 -199 -1020
-28 -199 -1018
-28 -199 -1016
-28 -198 -1014
-28 -198 -1012
-29 -197 -1011
-27 -190 -972
-38 59 261
-38 59 261
-43 61 286
-81 73 379
-83 75 389
-86 79 410
-32 71 325
-29 62 284
-32 72 329
-28 60 277
-32 72 329
-32 72 328
-32 73 334
-32 73 334
-32 73 334
-31 72 327
-31 71 325
-31 71 326
-32 74 340
-32 77 350
-32 75 343
-32 76 347
-93 88 458
-96 84 443
-31 72 330
-31 72 330
-32 72 333
-28 71 326
-29 72 327
-28 72 328
-9 67 290
-25 70 320
-23 65 298
-18 67 298
-9 63 273
-30 72 334
-30 72 335
-30 72 335
-28 67 309
-33 80 369
-32 81 375
-32 81 375
-32 81 375
-32 81 376
-33 83 385
-33 83 385
-32 83 386
-32 83 386
-32 83 386
-32 84 390
-32 83 387
-32 83 386
-31 83 387
-32 86 396
-32 86 398
-31 83 387
-31 83 387
-34 93 431
-32 88 409
-32 88 408
-32 89 414
-32 89 414
-32 89 415
-32 89 415
-24 61 288
-9 82 359
-32 91 421
-32 91 422
-32 92 428
-32 92 428
-31 88 412
-32 94 435
-32 94 436
-32 94 436
-32 95 441
-32 95 442
-31 94 437
-32 96 449
-32 96 450
-32 97 451
-32 97 451
-32 97 451
-32 97 452
-31 94 441
-30 89 418
-30 89 418
-30 89 419
-32 100 469
-32 101 473
-29 89 420
-32 103 482
-48 106 512
-32 103 483
-32 105 491
-32 105 491
-32 105 490
-32 105 492
-30 101 472
-32 107 504
-32 108 509
-32 108 509
-32 109 510
-32 109 510
-32 109 511
-32 111 519
-32 111 520
-32 111 520
-32 113 529
-32 113 530
-31 108 510
-31 108 511
-27 90 428
-27 90 428
-27 90 428
-32 116 548
-32 116 549
-32 119 562
-32 119 562
-32 119 563
-32 119 563
-31 119 564
-32 122 574
-31 117 553
-31 117 553
-33 118 561
-29 118 561
-29 118 562
-30 127 605
-30 128 606
-30 128 607
-30 128 608
-30 131 621
-30 131 622
-29 128 610
-29 131 624
-29 128 611
-29 128 612
-28 129 613
-27 119 570
-27 119 570
-27 119 571
-31 149 709
-31 149 710
-31 149 711
-29 143 683
-30 149 713
-29 143 685
-29 144 686
-29 144 687
-29 150 717
-29 150 718
-29 150 719
-29 151 720
-29 151 721
-31 165 790
-28 151 723
-30 166 792
-30 166 793
-29 158 759
-29 159 760
-28 159 761
-28 159 762
-29 167 799
-29 167 801
-29 167 802
-28 167 803
-28 168 804
-15 63 309
-30 186 893
-29 186 895
-28 177 852
-28 177 853
-28 178 854
-27 178 856
-27 178 857
-28 188 904
-28 188 906
-28 188 908
-27 189 909
-31 192 928
-30 192 930
-33 216 1046
-33 217 1048
-31 204 989
-31 205 991
-30 205 993
-29 204 990
-27 203 982
-28 216 1044
-28 216 1046
-28 217 1048
-27 217 1050
-27 217 1052
-27 218 1054
-24 194 940
-25 195 946
-30 251 1218
-28 235 1140
-28 235 1142
-26 235 1138
-26 235 1141
-27 252 1225
-27 253 1228
-28 255 1239
-27 255 1241
-27 256 1244
-25 255 1239
-25 256 1242
-25 256 1245
-24 240 1171
-27 279 1359
-26 280 1362
-26 280 1366
-26 281 1369
-27 306 1492
-27 307 1496
-26 308 1501
-26 308 1505
-25 309 1509
-20 229 1119
-19 202 991
-18 202 993
-18 203 995
-17 192 942
38 234 1085
24 162 752
-19 206 1013
-19 206 1015
-26 354 1737
-18 207 1019
-33 512 2509
-32 514 2521
-31 517 2533
-26 401 1967
-18 237 1170
-18 238 1172
-29 526 2582
-24 406 1997
-16 210 1037
-15 210 1039
-15 198 981
-20 368 1815
-14 199 984
-16 281 1386
-14 212 1049
-82 86 505
44 1689 8202
-173 5171 25452
-134 4785 23542
-133 5002 24620
-131 5240 25801
215 -10035 -49398
183 -9188 -45249
156 -8473 -41744
-124 6473 31919
-122 6878 33929
-119 7338 36208
23 -2292 -11305
19 -2244 -11073
16 -2198 -10851
12 -2154 -10637
9 -2112 -10432
5 -2071 -10234
2 -2032 -10044
-3 -1277 -6312
-4 -1262 -6239
-6 -1247 -6168
-8 -1889 -9351
-11 -1856 -9192
-13 -1824 -9039
-16 -1794 -8890
-18 -1764 -8747
-6 -1595 -7924
-9 -1571 -7810
25 -17893 -89119
-28 -1722 -8551
-14 -462 -2291
-17 -621 -3080
-19 -747 -3709
-14 -714 -3552
-14 -644 -3207
-15 -640 -3189
-16 -636 -3170
-19 -770 -3841
-17 -577 -2878
-18 -574 -2862
-19 -571 -2848
-18 -519 -2590
-19 -516 -2577
-20 -514 -2565
-20 -482 -2408
-20 -480 -2397
-23 -644 -3223
-45 -416 -2052
-29 -239 -1175
-13 -214 -1070
-21 -414 -2071
-16 -229 -1145
-16 -229 -1143
-16 -228 -1140
-22 -378 -1894
-23 -377 -1888
-22 -345 -1728
-23 -344 -1723
-23 -342 -1717
-27 -348 -1742
-29 -377 -1891
-29 -376 -1884
-30 -374 -1878
-30 -373 -1872
-26 -305 -1530
-27 -304 -1525
-27 -303 -1521
-27 -302 -1517
-28 -301 -1513
-27 -282 -1418
-27 -281 -1415
-28 -281 -1411
-29 -297 -1497
-30 -297 -1493
-30 -296 -1489
-30 -295 -1485
-31 -294 -1481
-31 -293 -1477
-25 -218 -1097
-26 -217 -1095
-26 -217 -1092
-29 -247 -1248
-28 -236 -1190
-29 -235 -1188
-29 -235 -1185
-30 -245 -1237
-30 -244 -1234
-31 -244 -1231
-31 -243 -1229
-31 -242 -1226
-32 -242 -1223
-29 -211 -1069
-25 -206 -1045
-25 -205 -1043
-26 -205 -1041
-25 -198 -1006
-26 -197 -1004
-26 -197 -1002
-27 -203 -1033
-27 -203 -1032
-27 -202 -1030
-28 -202 -1028
-28 -201 -1026
-28 -201 -1024
-28 -200 -1022
-29 -200 -1020
-29 -199 -1019
20 268 1391
163 281 1416
-38 59 260
-33 60 272
-30 61 278
-86 79 409
-32 72 328
-28 60 276
-28 60 277
-32 72 329
-31 72 326
-74 68 354
-32 73 333
-32 73 333
-32 72 328
-33 74 340
-33 75 340
-32 74 339
-32 77 349
-28 64 292
-28 64 294
-32 76 346
-32 76 347
-32 76 347
-32 75 344
-28 64 293
-29 75 340
-28 72 327
-28 72 327
-9 68 291
-15 69 302
-23 62 282
-17 65 287
-11 63 276
-32 79 362
-32 79 364
-30 72 334
-30 72 334
-29 67 310
-29 67 311
-30 72 335
-32 79 366
-31 79 365
-32 83 382
-32 83 382
-32 83 383
-32 83 383
-31 83 383
-32 84 388
-31 83 384
-32 85 394
-32 85 394
-31 85 394
-31 85 395
-31 83 386
-31 83 387
-32 88 406
-31 88 406
-31 88 406
-31 89 411
-31 89 411
-32 89 414
-9 84 366
-32 91 420
-32 91 420
-32 92 426
-32 92 426
-31 88 411
-32 93 434
-32 94 434
-32 94 435
-32 95 440
-32 95 440
-31 94 436
-32 96 447
-32 96 448
-32 96 449
-32 96 449
-31 96 449
-31 96 449
-31 94 440
-30 89 417
-32 100 465
-29 89 417
-29 89 418
-29 90 422
-31 100 468
-44 96 464
-31 103 480
-32 104 487
-32 104 488
-31 105 488
-31 105 489
-30 101 471
-32 107 501
-32 108 505
-32 108 506
-31 108 506
-31 108 507
-32 110 517
-32 110 517
-32 110 518
-32 110 518
-32 112 527
-32 112 528
-31 108 508
-31 108 508
-27 90 426
-27 90 427
-27 90 427
-32 116 546
-32 116 546
-32 119 559
-32 119 560
-32 119 560
-31 119 561
-32 121 571
-32 121 572
-31 117 550
-30 117 551
-21 75 358
-29 118 558
-28 118 557
-29 127 600
-29 127 601
-29 127 601
-30 127 604
-29 128 605
-30 130 618
-30 131 619
-29 131 620
-29 131 621
-29 128 608
-28 128 609
-28 128 610
-26 119 565
-27 119 568
-26 119 568
-31 148 705
-31 149 706
-30 149 707
-29 143 679
-30 149 709
-29 143 681
-29 143 682
-28 146 695
-29 150 713
-28 149 711
-29 150 715
-29 150 716
-29 150 717
-30 165 785
-30 165 786
-30 165 787
-30 165 788
-29 158 754
-28 158 755
-28 158 757
-28 158 758
-29 166 794
-29 166 796
-28 167 797
-28 167 798
-28 167 799
-28 173 828
-29 185 887
-29 186 889
-28 176 846
-28 177 847
-28 177 849
-27 177 850
-27 177 851
-28 187 898
-28 187 900
-27 188 901
-27 188 903
-27 188 904
-27 188 906
-29 211 1016
-26 189 909
-27 200 962
-27 200 964
-27 201 966
-26 201 967
-26 201 969
-27 214 1030
-27 214 1032
-26 214 1034
-26 215 1036
-26 215 1038
-24 192 927
-27 195 947
-27 196 948
-32 252 1222
-30 236 1143
-30 236 1146
-29 237 1148
-27 235 1137
-28 252 1221
-28 253 1224
-27 253 1227
-27 254 1229
-26 253 1225
-25 253 1227
-25 254 1230
-25 254 1233
-26 275 1332
-27 277 1345
-25 276 1339
-25 276 1342
-26 301 1460
-25 301 1464
-26 304 1479
-25 303 1472
-24 304 1476
-25 307 1491
-19 201 982
-19 201 983
-18 201 985
-18 202 987
-27 377 1834
24 161 746
-17 203 993
-19 205 1005
-18 194 950
-33 500 2438
-33 502 2449
-32 504 2460
-32 506 2472
-18 235 1154
-18 235 1156
-18 236 1159
-16 208 1022
-24 400 1959
-16 208 1026
-15 209 1028
-22 404 1981
-15 209 1032
-15 210 1034
-14 210 1036
-14 210 1038
-10 87 438
-146 4164 20432
-116 3911 19182
-115 4055 19892
-113 4209 20656
-111 4375 21481
355 -16357 -80290
288 -14230 -69876
236 -12592 -61856
-101 5199 25560
-98 5456 26833
-95 5739 28239
26 -2521 -12395
22 -2463 -12117
18 -2408 -11851
14 -2356 -11597
10 -2305 -11354
7 -2257 -11120
3 -2211 -10896
-2 -1347 -6638
-4 -1330 -6557
-6 -1313 -6479
-8 -2043 -10084
-11 -2005 -9900
-14 -1968 -9723
-16 -1933 -9551
-19 -1987 -9824
-22 -1951 -9650
-9 -1747 -8658
-27 -1883 -9318
8609 739854 3665917
-15 -581 -2872
-19 -777 -3846
-16 -756 -3747
-17 -751 -3721
-18 -745 -3696
-21 -682 -3380
-22 -678 -3360
-22 -615 -3049
-22 -611 -3033
-23 -608 -3016
-19 -585 -2912
-18 -531 -2643
-19 -529 -2630
-20 -526 -2618
-20 -493 -2454
-85 -2958 -14769
-33 -2228 -11166
-33 -256 -1252
-30 -243 -1193
-21 -424 -2113
-24 -507 -2533
-16 -232 -1155
-16 -232 -1153
-16 -231 -1150
-23 -385 -1922
-23 -383 -1916
-22 -350 -1751
-23 -349 -1746
-23 -348 -1740
-25 -378 -1889
-25 -376 -1883
-26 -375 -1877
-26 -373 -1870
-27 -372 -1864
-24 -304 -1524
-24 -303 -1520
-25 -302 -1516
-25 -301 -1512
-25 -301 -1508
-27 -286 -1434
-28 -285 -1431
-28 -285 -1427
-30 -302 -1514
-30 -301 -1510
-30 -300 -1506
-31 -299 -1502
-31 -298 -1498
-31 -297 -1494
-25 -220 -1106
-26 -220 -1104
-26 -219 -1102
-29 -251 -1260
-28 -239 -1201
-29 -238 -1199
-29 -238 -1196
-30 -248 -1249
-31 -247 -1246
-31 -247 -1243
-31 -246 -1241
-31 -245 -1238
-32 -245 -1235
-29 -214 -1078
-29 -213 -1076
-29 -213 -1074
-30 -212 -1072
-29 -205 -1034
-30 -204 -1033
-30 -204 -1031
-31 -210 -1064
-31 -210 -1062
-31 -209 -1060
-32 -209 -1058
-32 -208 -1056
-32 -208 -1054
-28 -203 -1030
-29 -202 -1029
-29 -202 -1027
19 266 1376
66 120 608
-37 61 278
-78 70 361
-75 69 354
-75 68 351
-33 72 328
-30 61 278
-30 61 279
-34 72 328
-34 73 331
-34 73 332
-29 62 285
-32 72 327
-32 73 332
-31 72 326
-32 74 338
-32 74 338
-32 74 338
-32 77 348
-32 75 341
-32 76 345
-32 76 345
-32 76 345
-33 75 342
-32 77 349
-32 77 350
-32 77 351
-31 72 331
-29 75 340
-29 75 340
-10 71 303
-16 71 309
-17 65 286
-17 65 286
-11 68 296
-11 69 297
-30 72 333
-29 72 332
-37 81 377
-32 83 381
-32 83 381
-32 83 382
-31 83 382
-32 84 387
-31 83 382
-31 83 383
-32 85 392
-32 85 393
-31 85 393
-31 85 393
-31 83 384
-25 61 285
-31 88 404
-31 88 405
-32 89 410
-31 89 411
-31 89 411
-31 89 411
-31 88 406
-31 90 416
-32 92 423
-31 92 423
-31 92 424
-31 92 424
-30 88 408
-31 93 431
-31 93 432
-31 93 432
-31 95 437
-31 95 438
-32 94 435
-32 96 447
-32 96 447
-32 96 447
-32 96 448
-32 96 448
-31 94 437
-30 89 415
-30 89 415
-32 100 465
-32 100 465
-32 100 466
-32 100 466
-31 101 470
-5 94 412
-32 103 479
-45 94 454
-31 103 478
-31 104 486
-31 104 486
-31 104 487
-30 100 469
-32 107 499
-32 108 503
-31 108 504
-31 108 504
-32 112 521
-31 110 513
-31 110 514
-31 110 514
-31 110 515
-31 112 523
-31 112 524
-30 108 505
-28 95 449
-27 90 425
-27 90 425
-32 116 543
-32 116 543
-31 116 542
-31 118 555
-32 119 557
-32 119 558
-31 119 558
-32 121 569
-32 121 569
-30 117 548
-21 75 357
-21 75 357
-29 118 556
-29 118 556
-30 127 599
-30 127 600
-30 127 600
-29 127 601
-29 127 602
-29 127 602
-29 130 616
-29 130 617
-29 130 618
-29 128 605
-28 128 606
-28 128 607
-26 119 563
-26 119 564
-30 147 698
-31 148 701
-30 148 702
-30 148 703
-29 142 676
-29 148 702
-28 142 675
-28 142 676
-28 143 677
-29 149 706
-28 149 707
-28 149 708
-28 149 709
-28 149 710
-30 164 777
-29 164 778
-29 164 779
-28 157 746
-28 157 747
-28 157 748
-27 157 749
-27 157 750
-28 165 786
-28 166 791
-28 166 792
-28 166 793
-28 166 794
-28 172 823
-29 185 881
-29 185 883
-28 176 840
-28 176 842
-27 176 843
-27 176 844
-27 177 846
-28 186 892
-28 187 893
-27 187 895
-27 187 896
-27 187 898
-27 188 899
-29 210 1008
-28 211 1009
-27 199 955
-27 199 957
-26 200 958
-26 200 960
-26 200 962
-27 213 1021
-27 213 1023
-26 213 1025
-26 214 1027
-24 191 919
-24 191 920
-23 191 922
-27 245 1178
-26 229 1105
-26 230 1107
-25 230 1109
-25 231 1112
-25 231 1114
-26 248 1194
-25 248 1197
-25 249 1200
-25 249 1203
-24 250 1205
-24 250 1208
-24 251 1211
-26 293 1413
-24 271 1309
-29 278 1349
-29 279 1352
-28 279 1356
-30 304 1476
-29 305 1480
-29 306 1484
-24 300 1455
-24 301 1459
-25 304 1474
-20 226 1100
-19 200 976
-18 201 978
-25 336 1632
40 246 1134
-17 201 983
-17 202 985
-27 425 2063
-31 435 2115
-18 204 1001
-32 494 2403
-32 496 2414
-26 388 1895
-18 233 1143
-18 234 1146
-17 206 1012
-16 207 1014
-16 207 1016
-16 207 1018
-23 397 1943
-15 196 964
-15 208 1024
-15 209 1026
-14 197 969
-16 276 1357
-1 -301 -1460
-18 -311 -1491
-104 3311 16185
-103 3412 16687
-101 3521 17222
-99 3636 17792
-96 3759 18400
965 -43782 -214284
644 -31311 -153305
465 -24366 -119348
-86 4348 21314
-83 4525 22192
-79 4718 23145
30 -2798 -13719
25 -2727 -13379
21 -2660 -13056
16 -2597 -12748
12 -2536 -12454
8 -2478 -12174
5 -2423 -11906
-2 -1424 -6999
-4 -1405 -6910
-6 -1387 -6823
-8 -2223 -10943
-11 -2179 -10727
-14 -2135 -10518
-17 -2094 -10318
-20 -2158 -10638
-23 -2116 -10433
-26 -2075 -10236
-27 -1943 -9589
-14 -599 -2953
-15 -892 -4406
-16 -787 -3887
-17 -781 -3859
-18 -775 -3832
-19 -769 -3805
-19 -690 -3412
-19 -685 -3391
-19 -621 -3075
-20 -618 -3058
-24 -624 -3088
-24 -620 -3071
-28 -816 -4046
-22 -549 -2721
-22 -454 -2249
-20 -504 -2501
-95 -3353 -16689
-45 -434 -2127
-33 -268 -1308
-25 -444 -2204
-25 -442 -2195
-30 -534 -2652
-18 -238 -1180
-16 -234 -1163
-16 -234 -1161
-23 -392 -1951
-23 -390 -1944
-22 -356 -1775
-23 -355 -1770
-23 -354 -1764
-25 -384 -1917
-26 -383 -1911
-26 -381 -1904
-27 -380 -1898
-27 -378 -1891
-24 -309 -1543
-24 -308 -1538
-25 -307 -1534
-25 -306 -1530
-26 -305 -1526
-25 -286 -1430
-25 -285 -1426
-25 -284 -1422
-27 -301 -1509
-27 -300 -1505
-28 -299 -1501
-28 -298 -1497
-28 -298 -1493
-29 -297 -1489
-24 -220 -1103
-24 -220 -1101
-24 -219 -1099
-27 -250 -1257
-29 -242 -1212
-29 -241 -1210
-29 -240 -1207
-30 -251 -1261
-31 -250 -1258
-31 -250 -1255
-31 -249 -1253
-32 -248 -1250
-32 -248 -1247
-29 -216 -1087
-29 -216 -1085
-30 -215 -1083
-29 -207 -1045
-29 -207 -1043
-30 -207 -1041
-30 -206 -1039
-31 -213 -1073
-31 -212 -1071
-31 -212 -1069
-30 -199 -1003
-32 -211 -1065
-32 -210 -1063
-32 -210 -1061
-33 -209 -1059
-29 -204 -1035
-161 -262 -1298
-38 59 258
-37 59 258
-38 61 277
-77 70 359
-76 69 354
-74 68 349
-75 68 351
-32 72 326
-28 60 275
-28 60 275
-32 71 323
-33 72 329
-32 72 328
-33 73 333
-32 72 325
-32 73 331
-32 72 326
-32 74 337
-32 74 337
-32 74 337
-32 75 339
-32 75 340
-33 75 343
-32 76 344
-32 76 344
-32 75 340
-31 75 341
-32 77 349
-31 77 349
-30 72 328
-32 72 332
-28 72 326
-29 75 340
-28 75 338
-11 71 306
-25 73 327
-21 67 298
-17 65 286
-17 65 288
-11 74 320
-33 79 364
-31 79 361
-28 67 309
-38 81 377
-32 83 380
-31 83 380
-31 83 381
-32 84 386
-31 83 381
-31 83 382
-32 85 391
-31 85 391
-31 85 392
-31 85 392
-31 85 392
-31 88 403
-31 88 403
-32 89 409
-31 89 409
-31 88 404
-31 88 405
-31 88 405
-31 88 405
-31 90 416
-31 92 422
-31 92 422
-30 88 407
-30 88 407
-31 93 430
-31 93 430
-31 94 435
-31 94 436
-31 94 436
-31 96 442
-31 94 432
-31 96 443
-31 96 444
-31 96 444
-31 96 444
-30 94 434
-29 89 412
-31 99 460
-31 100 461
-31 100 461
-31 100 462
-31 100 462
-32 100 465
-31 102 474
-32 103 477
-31 102 475
-60 113 550
-32 103 478
-32 104 486
-31 104 485
-30 100 467
-30 100 468
-31 107 497
-31 107 498
-31 108 502
-32 111 519
-31 110 511
-31 110 512
-31 110 512
-31 112 521
-31 112 521
-31 112 522
-30 108 502
-26 90 422
-26 90 422
-31 115 538
-31 115 539
-31 115 539
-31 116 540
-31 118 553
-31 118 553
-31 118 554
-31 119 554
-32 121 566
-30 116 545
-21 75 354
-28 117 550
-28 117 550
-27 117 551
-29 126 592
-29 126 593
-28 126 594
-28 126 594
-28 126 595
-28 127 596
-28 129 609
-28 130 610
-27 127 598
-27 127 599
-28 128 603
-28 128 604
-27 119 562
-26 119 563
-31 147 696
-31 148 697
-30 148 698
-30 148 699
-29 142 672
-30 148 701
-29 142 674
-29 142 675
-28 143 676
-29 149 705
-29 149 706
-29 149 707
-29 149 708
-28 149 709
-30 164 775
-29 163 773
-29 163 774
-29 164 775
-28 156 743
-27 157 744
-27 157 745
-27 157 746
-28 165 781
-28 165 783
-27 165 784
-27 165 785
-18 88 424
-29 183 869
-28 183 871
-27 174 830
-27 175 831
-27 175 832
-27 175 834
-28 180 860
-28 185 884
-28 186 885
-27 186 887
-27 186 888
-27 186 890
-27 187 892
-27 195 930
-28 209 1000
-27 198 946
-27 198 948
-27 198 949
-26 199 951
-26 199 953
-27 211 1011
-27 212 1013
-26 212 1015
-26 212 1017
-26 213 1019
-26 213 1021
-23 190 914
-23 190 915
-27 243 1167
-26 228 1095
-25 229 1097
-25 229 1100
-25 229 1102
-25 230 1104
-25 246 1183
-25 247 1186
-25 247 1189
-25 248 1191
-24 248 1194
-24 249 1197
-24 249 1199
-26 290 1398
-24 269 1296
-24 270 1299
-23 270 1302
-23 271 1306
-24 294 1416
-24 294 1420
-23 295 1424
-23 296 1428
-23 297 1432
-22 297 1436
-18 223 1078
-17 198 959
-15 196 951
-887 -4373 -19827
-2027 -10665 -48545
-19 202 985
-17 201 977
-27 419 2030
-26 421 2038
-16 202 983
-28 475 2303
-27 477 2313
-26 479 2323
-18 232 1133
-18 232 1136
-24 388 1887
-16 206 1006
-16 206 1008
-16 206 1010
-18 348 1694
-15 207 1014
-13 205 1005
-21 396 1935
-22 600 2919
-10 87 434
454 -742 -4048
-12 -306 -1467
36 1366 6569
39 1383 6651
41 1400 6735
44 1417 6822
47 1435 6910
49 1453 7001
94 2480 11944
100 2536 12217
106 2594 12503
61 1531 7389
64 1552 7492
68 1574 7599
35 -3141 -15358
29 -3053 -14934
24 -2970 -14532
19 -2891 -14152
15 -2816 -13791
10 -2745 -13448
6 -2678 -13121
-1 -1510 -7402
-4 -1490 -7302
-6 -1469 -7205
-8 -2437 -11962
-11 -2384 -11703
-14 -2333 -11456
-18 -2283 -11219
-21 -2360 -11598
-24 -2309 -11355
-27 -2261 -11122
-29 -2106 -10362
-18 -957 -4709
-15 -820 -4038
-16 -814 -4008
-17 -807 -3979
-18 -801 -3950
-18 -716 -3528
-19 -711 -3505
-20 -706 -3483
-19 -638 -3151
-20 -635 -3133
-21 -631 -3115
-22 -627 -3097
-21 -566 -2794
-22 -562 -2780
-20 -458 -2263
-46 -3078 -15310
-16 -278 -1375
-33 -272 -1325
-26 -547 -2711
-23 -448 -2217
-25 -451 -2233
-30 -547 -2708
-18 -241 -1190
-18 -240 -1188
-18 -240 -1185
-27 -408 -2021
-27 -406 -2014
-26 -370 -1833
-26 -368 -1827
-27 -367 -1821
-29 -400 -1985
-30 -398 -1978
-30 -396 -1971
-31 -395 -1964
-27 -385 -1919
-24 -313 -1561
-25 -312 -1557
-25 -311 -1552
-25 -311 -1548
-26 -310 -1544
-25 -290 -1446
-25 -289 -1442
-26 -288 -1438
-27 -306 -1527
-28 -305 -1523
-28 -304 -1519
-28 -303 -1514
-29 -302 -1510
-29 -301 -1506
-24 -223 -1113
-24 -222 -1110
-24 -222 -1108
-27 -253 -1269
-27 -241 -1209
-27 -241 -1206
-27 -240 -1204
-28 -251 -1257
-29 -250 -1255
-29 -249 -1252
-29 -249 -1249
-30 -248 -1246
-30 -247 -1243
-27 -216 -1085
-30 -218 -1094
-30 -218 -1092
-29 -210 -1053
-30 -209 -1051
-30 -209 -1049
-30 -208 -1047
-31 -215 -1082
-31 -215 -1080
-32 -214 -1078
-32 -214 -1076
-32 -213 -1074
-32 -213 -1071
-33 -212 -1069
-33 -212 -1067
-33 -211 -1065
-162 -265 -1311
-37 59 257
-37 59 258
-37 59 258
-33 60 270
-73 68 344
-77 68 349
-76 68 351
-30 69 310
-29 63 283
-28 60 274
-33 72 327
-33 71 322
-31 72 324
-29 72 321
-29 72 321
-29 72 322
-29 72 322
-28 62 283
-33 73 332
-29 72 324
-30 74 332
-29 74 331
-29 74 332
-29 74 334
-40 77 354
-29 75 338
-29 75 338
-29 75 338
-28 74 333
-29 76 342
-32 77 348
-31 75 339
-31 75 339
-32 74 337
-32 72 331
-29 72 327
-29 75 339
-29 75 339
-29 75 339
-11 73 311
-25 73 326
-22 72 322
-17 66 290
-16 65 285
-8 63 271
-9 63 271
-10 64 275
-29 72 331
-30 72 332
-31 79 361
-31 79 361
-36 80 374
-31 83 379
-31 83 380
-31 84 384
-31 83 379
-31 85 389
-31 85 389
-31 85 389
-31 85 390
-31 85 390
-31 85 391
-30 83 382
-31 88 402
-31 89 407
-31 89 408
-31 88 403
-30 88 403
-30 88 403
-31 90 413
-31 90 415
-31 92 420
-31 92 421
-30 88 405
-31 93 428
-31 93 428
-31 93 429
-31 94 434
-31 94 434
-31 94 435
-31 96 441
-31 93 431
-31 96 442
-31 96 442
-31 96 442
-31 96 443
-30 94 433
-29 89 410
-31 99 459
-31 99 459
-31 99 459
-31 101 464
-31 100 460
-31 100 461
-30 100 461
-23 69 322
-46 108 515
-55 109 528
-37 103 483
-35 91 432
-35 92 433
-32 107 497
-32 107 497
-32 108 502
-31 107 497
-31 109 508
-31 110 508
-31 110 509
-32 112 520
-32 112 521
-32 112 521
-30 108 502
-27 90 422
-27 90 422
-32 115 537
-31 115 536
-31 116 539
-31 116 539
-32 118 552
-31 118 552
-31 118 551
-31 118 552
-31 120 562
-30 116 543
-21 75 353
-21 75 353
-21 75 353
-28 117 547
-27 117 548
-27 117 548
-29 126 590
-28 126 590
-28 126 591
-28 126 592
-28 126 592
-28 126 593
-28 129 606
-28 129 607
-27 127 595
-27 127 596
-27 127 596
-27 127 597
-25 118 556
-25 118 557
-29 146 687
-29 146 688
-29 147 689
-29 147 690
-28 141 664
-28 141 665
-27 141 666
-28 147 694
-28 147 695
-28 148 696
-28 148 697
-27 148 698
-27 148 699
-27 148 700
-29 162 764
-28 162 765
-28 162 767
-28 156 740
-28 156 741
-28 157 742
-28 157 743
-28 157 744
-28 164 780
-28 165 781
-28 165 782
-28 165 783
-17 72 350
-28 182 864
-28 182 865
-27 174 824
-27 174 826
-27 175 831
-27 175 832
-27 180 854
-28 185 878
-28 185 879
-26 184 877
-27 185 882
-26 185 880
-26 185 881
-28 207 985
-27 207 987
-26 196 934
-27 208 990
-26 197 942
-26 198 944
-26 203 968
-26 209 998
-26 210 1000
-25 210 1002
-26 211 1009
-26 211 1011
-24 189 905
-23 189 907
-27 241 1154
-27 242 1157
-26 227 1086
-25 227 1088
-25 228 1090
-25 228 1093
-26 244 1170
-25 245 1172
-25 245 1175
-25 246 1178
-24 246 1180
-24 246 1183
-24 247 1186
-23 247 1188
-26 288 1382
-25 289 1386
-24 268 1286
-23 268 1289
-23 269 1292
-24 291 1401
-24 292 1405
-23 293 1408
-23 293 1412
-22 294 1416
-22 295 1420
-20 253 1221
-17 197 952
39 240 1097
26 -587 -2814
-19 201 976
-17 199 968
-23 332 1606
-27 414 1998
-26 415 2006
-28 466 2253
-27 468 2262
-27 470 2272
-26 472 2282
-26 474 2292
-25 476 2302
-21 376 1825
-15 230 1118
-14 203 990
-14 203 992
-18 344 1671
-17 345 1677
-18 384 1863
-22 585 2839
-22 588 2854
-23 686 3326
0 -283 -1364
11 -808 -3908
-38 2077 10057
37 1318 6323
39 1334 6399
41 1349 6477
44 1365 6557
46 1382 6639
85 2275 10928
90 2322 11156
95 2371 11394
57 1452 6986
60 1471 7079
63 1490 7174
436 8995 43272
488 9782 47077
551 10721 51614
627 11860 57117
721 13269 63930
841 15060 72586
997 17412 83948
-268 -4409 -21255
-264 -4239 -20446
-5 -1561 -7632
-8 -2695 -13189
-11 -2630 -12876
-15 -2568 -12577
-18 -2509 -12292
-22 -2601 -12748
-26 -2541 -12456
-28 -2347 -11510
71 7989 39229
-19 -997 -4888
-19 -868 -4257
-20 -861 -4224
-21 -854 -4192
-22 -847 -4160
-21 -752 -3694
-22 -747 -3669
-23 -741 -3645
-20 -656 -3230
-21 -652 -3211
-24 -659 -3244
-22 -644 -3173
-22 -580 -2856
-22 -577 -2841
-20 -467 -2303
-51 -3505 -17384
-33 -275 -1334
-15 -245 -1207
-26 -561 -2770
-23 -457 -2256
-26 -460 -2272
-30 -560 -2766
-18 -244 -1201
-18 -243 -1199
-18 -243 -1196
-27 -415 -2053
-27 -414 -2046
-26 -376 -1860
-27 -375 -1853
-27 -373 -1847
-29 -407 -2016
-30 -405 -2009
-30 -404 -2001
-31 -402 -1994
-31 -401 -1987
-27 -324 -1606
-28 -323 -1601
-28 -322 -1596
-28 -321 -1592
-29 -320 -1587
-28 -299 -1484
-28 -298 -1480
-29 -297 -1476
-30 -316 -1569
-31 -315 -1565
-31 -314 -1560
-29 -307 -1532
-29 -306 -1528
-29 -305 -1524
-24 -225 -1122
-24 -225 -1120
-27 -257 -1284
-26 -245 -1223
-27 -244 -1220
-27 -244 -1218
-27 -243 -1215
-29 -254 -1270
-29 -253 -1267
-29 -253 -1264
-29 -252 -1261
-30 -251 -1258
-30 -251 -1256
-27 -218 -1094
-28 -218 -1092
-28 -217 -1090
-28 -210 -1051
-28 -209 -1049
-28 -209 -1047
-28 -208 -1045
-29 -215 -1079
-30 -214 -1077
-30 -214 -1075
-30 -213 -1073
-30 -213 -1071
-31 -212 -1069
-31 -212 -1067
-31 -211 -1065
-31 -211 -1063
-164 -269 -1325
-37 59 257
-37 59 257
-37 59 257
-77 68 348
-76 68 348
-32 67 302
-30 61 275
-33 69 314
-33 68 309
-29 65 293
-31 71 318
-31 71 318
-28 60 273
-31 72 324
-31 72 324
-31 72 324
-30 72 322
-84 80 410
-29 71 317
-29 71 318
-30 74 332
-29 74 331
-29 74 331
-29 74 333
-29 75 336
-29 75 337
-29 75 337
-29 75 337
-28 74 332
-29 76 341
-29 76 341
-27 71 319
-28 74 333
-28 71 321
-32 72 331
-29 72 326
-29 72 326
-29 72 327
-29 75 338
-29 75 338
-12 71 306
-23 74 328
-22 72 321
-20 62 276
-17 65 286
-9 63 271
-9 65 277
-31 73 334
-33 80 364
-33 80 365
-29 67 309
-29 67 309
-32 80 365
-33 83 381
-31 83 379
-31 83 379
-31 85 388
-31 85 388
-31 85 388
-31 85 388
-30 83 379
-31 85 389
-25 64 296
-31 88 401
-31 88 401
-31 89 406
-30 88 401
-31 90 412
-31 90 412
-31 91 418
-31 91 418
-31 91 418
-30 88 403
-31 93 426
-31 93 426
-31 93 426
-31 94 431
-31 94 432
-31 94 432
-31 96 438
-31 96 439
-31 96 439
-31 97 445
-31 97 446
-31 97 446
-30 95 436
-30 94 431
-31 99 457
-31 99 457
-31 99 458
-31 100 462
-31 100 459
-30 100 459
-31 102 470
-30 100 460
-31 102 471
-32 103 477
-30 102 472
-30 100 462
-49 95 462
-30 100 462
-31 101 468
-31 107 492
-31 107 493
-30 107 493
-30 107 494
-31 109 506
-31 109 506
-30 109 507
-31 111 515
-31 111 516
-30 107 497
-29 107 497
-26 90 418
-26 90 419
-30 115 532
-30 115 533
-30 115 533
-31 118 545
-30 118 546
-30 118 547
-30 118 547
-30 118 548
-31 118 552
-29 121 564
-21 74 352
-28 116 544
-27 117 545
-20 75 353
-29 125 586
-29 126 587
-28 126 587
-28 126 588
-28 126 589
-28 126 590
-28 126 590
-28 126 591
-27 126 592
-27 126 592
-27 126 593
-27 127 594
-27 127 594
-25 118 554
-25 118 554
-29 146 684
-29 146 685
-29 146 686
-29 146 687
-28 141 660
-27 141 661
-27 141 662
-28 147 690
-28 147 691
-28 147 692
-27 147 693
-27 147 694
-27 148 695
-27 148 696
-28 161 760
-28 162 761
-28 162 762
-27 155 730
-27 155 731
-27 155 732
-26 155 733
-26 156 734
-27 163 769
-27 163 770
-26 163 771
-26 163 772
-28 181 854
-27 181 855
-26 172 816
-26 173 817
-27 174 825
-27 174 826
-27 174 828
-28 184 872
-27 184 873
-27 184 875
-27 184 876
-27 185 878
-26 185 879
-28 206 977
-28 207 984
-27 196 932
-28 208 988
-26 197 935
-26 197 937
-26 203 965
