-81 125 605
-83 127 615
-80 122 587
-53 76 368
-53 76 367
-79 121 579
-78 121 576
-78 120 573
-78 120 571
-83 129 612
-62 92 439
-82 129 603
-83 131 613
-81 128 597
-81 128 594
-80 128 592
-80 127 589
-75 118 546
-74 118 543
-89 145 663
-89 145 660
-88 144 656
-88 144 653
-87 144 649
-84 138 622
-84 137 619
-85 140 628
-84 139 624
-85 142 633
-85 141 630
-83 139 611
-80 134 587
-73 122 533
-100 155 679
-153 179 813
-86 148 636
-173 327 1377
-134 250 1051
-150 283 1186
-131 246 1025
-167 320 1331
-166 318 1317
-148 283 1171
-127 240 993
-126 239 985
-173 267 1120
-94 177 718
-82 151 613
-82 150 610
-99 179 725
-125 165 698
-88 157 636
-105 193 775
-104 192 770
-104 191 765
-103 190 761
-103 190 756
-99 181 720
-97 180 713
-78 141 562
-105 196 772
-105 196 770
-103 194 763
-105 198 775
-104 197 771
-104 196 766
-105 200 779
-105 199 774
-104 199 769
-106 203 782
-105 202 777
-106 202 776
-99 188 722
-107 206 787
-107 205 782
-106 204 777
-107 207 787
-102 203 769
-86 168 636
-86 168 633
-88 174 654
-88 173 651
-87 173 648
-87 172 644
-86 171 639
-81 163 607
-84 170 628
-86 176 649
-86 175 646
-85 175 642
-90 179 660
-89 179 657
-92 186 680
-90 181 663
-90 181 659
-106 218 793
-105 217 788
-95 201 727
-109 224 809
-110 225 811
-111 227 816
-110 226 810
-109 222 796
-112 229 819
-111 228 814
-107 225 798
-109 229 812
-108 228 807
-103 224 788
-97 211 741
-97 210 737
-105 230 804
-114 238 834
-114 237 829
-113 236 823
-115 240 838
-114 239 833
-113 238 827
-115 243 842
-115 242 837
-114 241 831
-108 227 782
-107 226 777
-117 249 852
-116 249 850
-116 247 844
-115 246 839
-117 251 854
-116 250 848
-115 249 843
-117 254 858
-117 253 853
-116 252 847
-114 245 825
-110 238 797
-101 216 723
-129 282 942
-119 260 865
-118 258 859
-126 278 922
-120 262 869
-119 261 863
-118 260 857
-119 264 869
-120 264 867
-119 263 862
-113 249 815
-120 267 872
-119 266 866
-119 264 860
-121 271 880
-120 270 874
-93 203 659
-116 264 847
-116 262 841
-115 261 836
-114 260 830
-183 429 1364
-181 426 1350
-179 422 1336
-177 418 1322
-122 282 891
-121 280 885
-121 279 879
-125 290 911
-124 288 905
-118 275 861
-118 274 856
-117 272 850
-116 271 844
-115 270 839
-127 299 927
-126 297 920
-125 296 914
-124 294 907
-123 293 901
-123 291 895
-126 301 924
-126 300 917
-120 287 876
-120 285 871
-119 284 865
-118 282 859
-118 281 853
-117 280 848
-143 349 1054
-142 347 1045
-141 345 1037
-128 308 926
-135 326 980
-128 307 921
-106 252 755
-105 250 748
-126 308 917
-128 309 919
-124 299 890
-129 314 931
-128 312 924
-127 310 918
-120 291 859
-119 289 854
-118 288 848
-130 319 936
-130 319 934
-129 317 927
-128 315 921
-127 313 914
-54 119 349
-133 328 955
-126 309 896
-123 306 886
-123 304 880
-122 303 874
-121 301 868
-122 301 867
-14 159 368
-118 44 889
-118 44 883
-209 73 892
-73 66 556
-73 66 551
-73 66 548
-72 66 546
-72 66 543
-72 66 541
-71 66 538
-73 69 555
-73 69 552
-73 69 550
-74 70 558
-73 70 556
-74 71 561
-74 71 558
-73 71 556
-73 71 553
-73 71 551
-74 72 558
-73 72 555
-72 71 543
-74 74 560
-74 74 557
-73 74 555
-77 79 587
-74 76 564
-65 75 539
-33 69 458
-12 66 408
-74 78 563
-74 78 561
-73 76 549
-75 79 565
-74 79 563
-74 79 560
-74 79 558
-71 75 531
-75 81 567
-75 82 569
-75 82 567
-74 82 564
-75 83 571
-74 83 565
-67 80 540
-186 103 824
-211 112 905
-202 110 876
-65 82 539
-174 97 763
-163 91 714
-198 113 874
-119 96 679
-116 96 670
-115 96 666
-115 96 663
-114 95 659
-114 95 656
-99 92 619
-113 95 649
-112 95 645
-111 95 642
-101 96 630
-97 92 603
-73 87 545
-73 87 543
-77 93 579
-77 93 576
-77 93 573
-76 93 571
-64 65 415
-61 72 442
-77 96 581
-77 95 578
-76 95 576
-74 92 554
-76 95 572
-78 99 587
-77 98 583
-78 100 590
-78 100 588
-77 100 585
-78 102 593
-78 101 590
-78 101 587
-77 101 584
-77 101 581
-79 103 591
-75 97 558
-74 97 554
-78 105 593
-78 104 590
-79 104 589
-79 106 595
-78 104 584
-78 104 581
-80 107 597
-79 107 595
-79 107 592
-79 107 589
-78 107 586
-76 103 565
-71 96 525
-71 96 523
-80 111 600
-79 111 597
-79 110 594
-79 110 591
-78 110 588
-80 113 604
-80 113 601
-78 110 580
-79 110 581
-77 109 575
-77 109 572
-76 109 570
-76 109 567
-76 109 564
-75 108 562
-75 108 559
-81 117 603
-81 117 600
-81 117 597
-80 116 594
-80 119 604
-80 119 601
-80 119 598
-79 118 595
-77 115 577
-77 115 574
-64 94 469
-64 94 467
-64 93 466
-81 123 607
-81 123 607
-80 123 605
-81 125 613
-83 126 614
-82 125 611
-80 125 604
-80 124 601
-78 121 584
-78 121 581
-79 121 582
-79 121 579
-78 121 577
-78 121 574
-78 120 571
-77 120 569
-82 129 610
-77 120 564
-76 119 561
-83 131 614
-81 128 598
-80 128 595
-80 128 592
-79 127 588
-75 118 546
-74 118 544
-89 145 664
-88 145 661
-88 144 657
-88 144 654
-87 144 650
-84 138 623
-84 138 620
-85 140 628
-86 142 637
-85 142 634
-84 141 629
-84 141 625
-83 141 622
-47 72 322
-87 150 655
-84 144 627
-45 69 306
-86 148 640
-152 178 809
-81 140 600
-172 329 1378
-145 275 1151
-144 273 1141
-114 213 887
-166 319 1321
-164 316 1307
-159 309 1268
-124 237 972
-156 304 1243
-93 176 711
-81 150 608
-84 151 613
-106 194 784
-106 193 779
-104 192 771
-104 191 767
-103 191 762
-102 190 757
-99 181 721
-82 149 592
-81 148 589
-110 206 813
-104 195 768
-103 194 764
-103 194 759
-104 197 772
-104 197 767
-103 196 762
-105 200 775
-104 199 770
-106 203 783
-105 202 778
-105 201 774
-98 188 720
-106 205 785
-105 204 780
-105 203 775
-105 203 774
-86 169 640
-86 168 637
-87 171 646
-88 174 655
-88 174 652
-87 173 648
-87 172 645
-87 172 642
-83 165 614
-86 171 635
-88 177 657
-88 177 653
-88 176 650
-89 179 659
-88 179 656
-91 185 678
-89 181 661
-87 179 653
-87 182 660
-87 181 657
-104 216 781
-111 226 818
-110 225 812
-111 227 817
-110 226 812
-108 222 797
-111 229 821
-111 228 815
-110 227 810
-112 232 824
-111 231 819
-111 230 814
-104 216 764
-176 380 1332
-113 236 831
-113 237 832
-112 236 827
-112 235 821
-113 240 836
-113 239 830
-110 236 818
-106 236 814
-105 235 809
-105 234 804
-99 221 757
-99 220 753
-117 249 854
-116 249 852
-116 248 846
-115 247 840
-117 252 856
-116 251 850
-115 249 844
-117 254 860
-117 253 854
-116 252 848
-113 245 823
-101 217 728
-110 237 794
-142 316 1054
-119 260 866
-117 258 857
-125 277 919
-118 262 867
-118 261 861
-99 216 713
-119 265 871
-118 263 865
-117 262 859
-120 268 875
-119 266 869
-118 265 863
-121 272 883
-120 270 877
-108 243 788
-146 354 1136
-123 279 899
-116 264 848
-116 263 843
-115 261 837
-114 260 832
-183 430 1368
-181 427 1353
-179 423 1339
-177 419 1326
-122 282 893
-121 281 887
-120 279 881
-125 290 913
-124 289 907
-118 275 863
-118 274 857
-117 273 851
-116 271 846
-115 270 840
-127 299 928
-126 298 922
-125 296 915
-124 294 909
-123 293 902
-127 303 932
-126 302 926
-126 300 919
-120 287 878
-120 286 872
-119 284 866
-118 283 861
-117 282 855
-144 352 1065
-143 350 1056
-142 347 1048
-141 345 1039
-140 343 1031
-126 307 920
-107 253 761
-104 250 750
-128 311 930
-126 308 919
-125 307 912
-121 297 883
-123 298 885
-126 310 917
-125 308 910
-117 289 853
-119 290 855
-118 289 850
-130 319 938
-130 319 935
-129 317 929
-128 316 922
-130 322 940
-53 118 349
-121 316 915
-125 309 898
-123 306 887
-123 305 881
-122 303 876
-121 302 870
-122 301 868
-14 159 368
-82 60 574
-65 57 485
-72 65 548
-73 66 556
-73 66 554
-73 66 551
-72 66 549
-72 66 546
-72 66 544
-72 66 541
-71 66 539
-73 69 555
-73 69 553
-73 69 550
-74 70 559
-73 70 556
-74 71 562
-74 71 559
-73 71 557
-73 71 554
-73 71 551
-74 72 558
-73 72 556
-74 74 563
-74 74 560
-74 74 558
-73 74 555
-62 61 458
-74 76 564
-74 76 562
-74 76 559
-73 76 557
-74 78 564
-74 78 561
-75 79 569
-74 79 566
-74 79 563
-74 79 561
-71 75 534
-70 75 531
-78 85 594
-75 82 570
-75 82 567
-74 82 565
-75 83 572
-75 83 569
-75 83 567
-74 83 564
-75 84 571
-75 84 569
-75 84 566
-74 84 564
-71 81 538
-67 75 501
-76 87 576
-75 87 573
-75 87 570
-75 87 568
-74 87 565
-74 87 562
-74 87 560
-59 67 437
-76 90 574
-75 90 572
-75 90 569
-75 90 566
-72 87 545
-198 121 869
-203 122 878
-201 122 871
-211 128 913
-209 128 906
-206 127 896
-196 124 867
-195 120 841
-123 72 514
-154 118 777
-155 118 775
-77 99 582
-78 100 588
-80 104 607
-80 104 604
-78 101 590
-78 101 588
-77 101 585
-77 101 582
-78 103 590
-74 97 557
-79 105 597
-78 105 594
-78 104 591
-78 104 588
-78 106 594
-77 104 583
-77 104 580
-79 107 596
-78 107 593
-78 107 591
-79 109 599
-75 103 567
-75 103 564
-70 96 524
-70 96 522
-79 111 599
-79 111 598
-79 111 595
-79 110 592
-78 110 589
-78 110 586
-80 113 601
-80 113 598
-77 110 578
-77 109 575
-76 109 573
-76 109 570
-76 109 568
-76 109 565
-75 109 562
-75 108 560
-66 94 488
-49 66 341
-70 101 516
-79 116 591
-80 119 604
-80 119 602
-81 121 610
-79 118 596
-77 115 577
-77 115 575
-64 94 470
-64 94 468
-81 123 610
-81 123 607
-80 123 605
-80 123 602
-81 125 613
-54 77 382
-81 125 608
-82 127 616
-80 124 602
-78 121 585
-78 121 582
-77 121 579
-77 121 577
-62 93 446
-66 94 453
-178 155 811
-77 120 569
-81 129 606
-82 131 617
-81 129 604
-81 129 602
-81 128 599
-80 128 596
-79 127 589
-78 127 587
-74 118 547
-74 118 545
-74 118 542
-87 144 657
-86 144 654
-88 144 655
-87 144 651
-84 138 624
-83 138 621
-84 140 629
-86 142 638
-85 142 635
-85 142 631
-84 141 628
-83 141 623
-83 140 620
-70 115 511
-46 69 309
-87 150 652
-83 144 625
-87 149 648
-48 75 330
-88 149 644
-120 139 634
-153 182 823
-88 156 663
-135 252 1064
-174 333 1397
-118 221 926
-147 280 1169
-164 316 1313
-166 319 1324
-162 314 1297
-161 312 1284
-153 303 1218
-100 191 772
-92 175 704
-80 149 603
-135 175 739
-103 192 769
-97 176 707
-96 176 703
-101 190 756
-101 189 751
-82 149 594
-82 149 591
-82 148 589
-81 148 586
-102 194 762
-124 211 836
-123 210 831
-105 198 771
-105 201 781
-103 199 770
-102 198 765
-104 202 778
-105 202 780
-105 201 775
-98 188 721
-106 205 786
-105 205 781
-122 247 938
-86 169 642
-86 169 641
-86 169 638
-87 171 647
-88 174 656
-88 174 653
-87 173 649
-87 173 646
-87 172 643
-83 165 614
-86 171 636
-88 177 657
-88 177 654
-88 176 651
-89 179 660
-88 179 656
-86 175 641
-89 181 662
-89 181 659
-88 180 655
-89 183 665
-89 182 661
-84 172 622
-106 222 800
-106 224 804
-110 226 813
-108 223 798
-111 230 822
-111 229 817
-110 228 811
-112 232 826
-111 231 820
-111 230 815
-104 216 765
-176 381 1336
-113 237 832
-113 238 833
-112 236 828
-112 235 823
-113 240 837
-113 239 832
-112 238 826
-114 243 841
-113 242 836
-113 241 830
-106 227 781
-106 226 776
-115 248 851
-115 248 849
-114 247 844
-114 246 838
-116 251 853
-115 250 848
-109 245 827
-108 247 830
-107 246 825
-107 245 820
-121 252 850
-107 221 746
-103 218 730
-100 215 721
-119 260 868
-118 259 862
-116 257 852
-118 262 868
-108 253 831
-107 252 826
-109 257 841
-109 256 835
-106 248 810
-119 268 877
-119 267 871
-108 257 834
-111 263 852
-120 271 879
-93 205 666
-122 278 896
-116 264 850
-106 255 814
-106 254 809
-105 253 804
-164 410 1296
-163 406 1283
-179 424 1343
-177 420 1329
-122 283 894
-121 281 888
-120 280 882
-125 291 915
-124 289 908
-118 276 864
-117 274 859
-117 273 853
-116 272 847
-115 270 842
-127 300 930
-126 298 923
-125 297 917
-124 295 910
-123 293 904
-127 304 934
-126 302 927
-126 301 921
-120 288 880
-120 286 874
-119 285 868
-118 283 862
-117 282 856
-144 352 1067
-143 350 1058
-142 348 1050
-141 346 1041
-140 344 1033
-126 307 922
-107 254 762
-105 252 755
-128 312 931
-127 310 925
-126 308 918
-125 307 912
-122 297 883
-127 312 923
-126 310 917
-119 291 858
-215 373 1136
-116 287 843
-131 327 960
-127 317 928
-126 315 921
-125 313 915
-127 320 933
-84 130 398
-209 335 1015
-123 307 889
-123 305 883
-122 304 877
-121 302 871
-110 272 785
-14 159 368
-73 66 558
-73 66 554
-72 66 550
-72 66 548
-71 66 545
-71 66 543
-71 66 540
-71 66 538
-72 69 554
-72 69 552
-72 69 549
-73 70 558
-73 70 555
-73 71 561
-73 71 558
-73 71 555
-72 71 553
-73 72 560
-73 72 557
-73 72 555
-73 74 562
-73 74 559
-73 74 557
-73 74 556
-62 61 459
-62 61 457
-76 79 587
-73 76 558
-73 76 556
-73 78 563
-74 78 562
-74 79 567
-74 79 565
-73 79 562
-74 79 561
-73 79 559
-70 75 532
-75 81 568
-75 82 571
-75 82 568
-74 82 565
-74 82 563
-75 83 570
-74 83 567
-73 81 550
-75 85 572
-75 84 569
-74 84 567
-74 84 564
-71 81 538
-67 75 501
-76 87 576
-75 87 574
-75 87 571
-66 76 498
-60 67 442
-74 87 563
-74 87 560
-73 87 558
-75 90 575
-75 90 572
-75 90 570
-74 90 567
-72 87 545
-72 87 543
-76 93 579
-76 93 576
-75 93 574
-75 93 571
-75 92 568
-74 92 566
-76 96 583
-76 96 581
-76 95 578
-54 63 387
-60 74 446
-74 98 580
-219 135 934
-199 129 876
-79 104 605
-12 84 424
-12 83 417
-12 83 416
-12 83 414
-67 100 562
-12 83 412
-79 105 597
-91 108 626
-202 139 900
-177 132 835
-104 114 661
-77 104 583
-77 104 580
-79 107 597
-78 107 594
-78 107 591
-79 109 599
-75 103 567
-75 103 565
-70 96 524
-70 96 522
-79 111 599
-79 112 604
-79 112 601
-78 110 591
-78 110 588
-77 110 585
-79 113 600
-79 113 597
-78 113 594
-77 109 576
-76 109 573
-76 109 571
-76 109 568
-75 109 566
-80 117 604
-75 110 565
-50 69 355
-80 119 605
-80 119 602
-81 121 610
-80 120 605
-77 115 578
-72 107 536
-64 94 470
-64 94 468
-81 123 611
-81 123 608
-80 123 605
-80 123 602
-81 126 614
-81 125 611
-54 77 381
-82 125 609
-81 127 614
-78 121 585
-78 121 583
-77 121 580
-77 121 577
-77 121 578
-61 93 443
-64 98 468
-81 129 610
-75 120 564
-80 129 604
-65 100 473
-74 119 557
-79 128 596
-79 128 593
-78 127 590
-78 127 587
-73 118 544
-73 118 542
-73 118 540
-87 144 658
-86 144 654
-86 144 651
-83 138 623
-82 137 620
-82 137 617
-83 139 626
-84 142 634
-83 141 631
-83 141 628
-83 141 625
-82 140 622
-88 151 668
-87 151 665
-52 82 366
-50 76 338
-82 140 611
-62 102 446
-87 150 652
-85 149 644
-85 148 641
-84 148 637
-43 67 292
-42 64 278
-105 167 721
-86 152 648
-84 151 640
-146 279 1161
-164 318 1314
-163 315 1301
-126 240 991
-180 279 1180
-155 303 1237
-186 295 1218
-92 175 705
-92 175 704
-80 149 601
-61 70 300
-207 205 895
-125 169 703
-124 169 699
-203 203 876
-87 151 598
-78 142 562
-123 210 832
-125 214 847
-201 261 1068
-104 200 774
-103 199 770
-105 203 782
-104 202 778
-103 201 773
-97 187 720
-105 205 784
-99 201 763
-86 170 646
-86 169 643
-85 169 640
-85 168 637
-86 171 646
-87 174 655
-87 173 651
-86 173 648
-86 172 645
-86 172 641
-82 165 613
-71 139 519
-88 178 658
-88 177 655
-87 177 652
-89 179 661
-88 179 657
-86 175 642
-89 181 663
-88 181 660
-88 180 656
-89 183 666
-89 183 662
-87 179 646
-90 186 670
-89 185 667
-105 222 797
-104 222 792
-110 229 820
-109 228 814
-109 227 809
-111 232 823
-110 231 818
-109 230 813
-103 216 763
-174 379 1330
-111 236 830
-113 238 835
-112 237 829
-111 236 824
-113 241 839
-113 239 833
-112 238 828
-114 243 843
-113 242 837
-113 241 832
-106 227 782
-106 226 777
-115 249 853
-115 249 851
-114 248 845
-114 246 839
-115 251 855
-115 250 849
-114 249 843
-116 254 859
-115 253 853
-115 252 847
-111 245 822
-99 216 724
-107 236 789
-98 214 716
-116 259 861
-116 257 856
-110 252 835
-110 255 842
-111 256 844
-113 257 846
-109 257 842
-108 256 837
-105 249 811
-110 260 846
-114 263 856
-108 257 835
-111 264 854
-109 245 795
-100 222 721
-130 286 927
-112 270 864
-107 257 821
-106 255 816
-105 254 811
-105 253 805
-164 411 1299
-163 407 1286
-161 404 1273
-160 401 1261
-112 274 862
-111 273 857
-110 271 851
-114 282 881
-113 280 875
-108 267 835
-108 266 829
-117 273 854
-116 272 849
-115 271 843
-127 300 932
-126 299 925
-125 297 919
-124 295 912
-123 294 906
-127 304 936
-126 303 929
-125 301 923
-120 288 881
-119 287 875
-119 285 869
-118 284 864
-117 282 858
-144 353 1069
-143 351 1061
-142 349 1052
-141 346 1044
-140 344 1035
-105 253 761
-106 253 760
-105 252 756
-128 312 933
-127 311 927
-126 309 920
-125 307 914
-122 298 884
-106 257 763
-126 310 918
-118 291 860
-118 290 854
-129 321 943
-129 320 941
-128 319 934
-127 317 928
-130 324 946
-129 322 939
-81 129 393
-130 327 950
-123 307 892
-121 305 882
-120 303 876
-119 302 870
-119 300 865
-111 274 789
-14 159 369
-67 59 509
-73 66 560
-73 66 555
-73 66 552
-72 66 550
-71 66 546
-72 66 545
-71 66 543
-70 66 539
-73 69 556
-72 69 552
-72 69 550
-73 70 558
-76 74 584
-73 71 561
-73 71 559
-72 71 556
-72 71 554
-73 72 561
-73 72 558
-72 72 556
-73 74 563
-73 74 560
-73 74 557
-72 74 555
-62 61 459
-74 76 564
-76 79 587
-73 76 564
-73 76 561
-73 76 556
-72 76 554
-73 78 561
-71 75 543
-74 79 565
-73 79 563
-73 79 560
-70 75 533
-74 81 570
-77 85 593
-74 82 570
-74 82 567
-73 82 564
-74 83 572
-74 83 569
-73 82 557
-75 85 575
-72 81 552
-75 85 570
-74 84 567
-74 84 565
-68 76 509
-76 87 580
-75 87 577
-75 87 574
-75 87 571
-75 87 569
-74 87 566
-74 87 564
-74 87 561
-73 87 558
-73 87 556
-75 90 573
-72 87 551
-72 87 549
-72 87 546
-72 87 544
-76 93 580
-76 93 577
-75 93 574
-75 93 572
-75 92 569
-74 92 566
-74 92 564
-76 96 581
-76 96 579
-53 63 384
-67 83 502
-51 60 368
-77 99 586
-76 98 583
-77 100 591
-76 98 577
-75 98 575
-75 98 572
-12 84 426
-12 84 423
-12 84 422
-20 86 441
-77 103 589
-73 97 557
-78 105 596
-77 105 593
-77 104 590
-77 104 588
-78 106 594
-76 104 582
-76 104 579
-226 150 964
-224 150 957
-76 106 586
-71 107 580
-198 137 862
-187 125 789
-216 152 944
-214 152 937
-160 137 809
-208 152 925
-203 148 901
-119 123 693
-93 118 638
-121 127 708
-120 126 704
-80 115 606
-76 109 575
-76 109 574
-76 109 571
-76 109 569
-75 109 566
-79 117 605
-79 117 602
-74 108 557
-73 108 554
-73 108 552
-79 116 591
-79 119 600
-80 121 606
-76 115 577
-72 107 537
-64 94 470
-64 94 469
-81 123 612
-80 123 609
-79 123 604
-79 123 601
-80 125 613
-80 125 610
-80 125 607
-79 125 604
-80 127 612
-77 121 584
-77 121 582
-76 121 579
-76 120 576
-76 121 577
-76 121 574
-80 129 612
-82 132 624
-80 129 608
-80 129 605
-81 131 615
-79 128 599
-79 128 596
-79 128 593
-78 127 591
-78 127 588
-73 118 545
-73 118 543
-72 118 540
-86 144 659
-86 144 655
-86 144 652
-82 138 624
-82 138 621
-82 137 618
-84 142 639
-84 142 635
-83 142 632
-83 141 629
-83 141 626
-82 141 623
-88 152 669
-87 151 665
-87 151 662
-68 115 505
-68 115 503
-62 104 455
-82 144 624
-85 149 645
-79 138 596
-53 86 376
-84 148 635
-55 90 392
-105 167 722
-85 152 646
-85 152 643
-84 151 640
-148 283 1186
-145 278 1153
-161 312 1293
-180 280 1183
-79 149 599
-80 149 600
-131 171 709
-113 162 659
-116 208 819
-305 320 1351
-228 278 1145
-103 199 771
-104 203 784
-104 202 779
-103 201 774
-99 192 736
-96 193 736
-89 177 674
-85 169 645
-87 170 646
-85 169 641
-85 168 638
-86 171 646
-87 174 655
-87 174 652
-86 173 649
-86 173 645
-86 172 642
-82 165 614
-79 159 591
-87 177 657
-87 177 653
-87 176 650
-88 179 659
-87 179 656
-85 175 640
-88 181 662
-88 180 658
-87 180 655
-88 183 664
-88 182 661
-86 178 645
-89 185 669
-89 185 668
-89 187 673
-104 222 793
-103 221 788
-109 229 816
-109 228 811
-111 232 825
-110 231 820
-109 230 814
-103 216 764
-174 380 1333
-111 236 831
-112 237 832
-111 236 827
-110 235 822
-112 240 836
-111 239 831
-111 238 825
-113 243 840
-112 242 835
-111 240 829
-105 227 780
-106 226 779
-115 249 854
-115 249 852
-114 248 846
-113 247 841
-115 252 856
-115 251 850
-114 249 845
-116 255 860
-115 253 855
-112 246 828
-111 245 823
-108 237 796
-99 215 721
-126 282 940
-116 259 863
-116 258 857
-115 257 851
-117 262 867
-116 261 861
-118 266 877
-118 265 871
-117 264 865
-116 262 860
-110 249 813
-117 266 870
-117 265 864
-108 245 798
-99 211 689
-122 281 908
-118 276 888
-112 270 866
-107 257 822
-106 256 817
-105 255 812
-105 253 807
-164 412 1302
-163 408 1289
-161 405 1277
-160 402 1264
-112 274 864
-111 273 858
-115 283 889
-114 282 883
-113 281 877
-108 268 836
-108 267 831
-107 265 825
-107 264 820
-117 292 904
-116 290 897
-115 289 891
-114 287 885
-114 286 879
-113 285 873
-116 294 901
-116 293 895
-115 291 889
-120 288 883
-119 287 877
-119 286 871
-118 284 865
-117 283 859
-144 354 1072
-143 352 1063
-142 349 1054
-141 347 1046
-114 276 832
-105 253 763
-105 253 761
-129 314 942
-126 311 930
-126 310 924
-125 308 917
-124 306 911
-126 313 928
-125 311 922
-125 310 915
-117 290 857
-118 290 855
-123 306 901
-129 321 943
-128 319 936
-127 317 929
-129 324 947
-127 213 647
-101 240 703
-123 308 894
-121 305 884
-120 304 878
-119 302 872
-118 301 866
-74 174 504
-13 159 369
-115 44 887
-211 73 905
-66 59 509
-73 66 558
-71 66 552
-72 66 553
-71 66 547
-71 66 545
-70 66 542
-70 66 540
-70 66 538
-72 68 554
-71 69 551
-71 69 549
-72 70 557
-75 74 583
-72 71 560
-72 71 558
-72 71 555
-71 71 553
-72 72 560
-72 72 557
-72 72 555
-72 74 562
-74 74 562
-73 74 560
-68 69 518
-62 61 459
-74 77 569
-73 76 563
-72 76 560
-71 76 556
-71 76 554
-72 78 561
-73 78 561
-71 75 543
-73 79 566
-73 79 563
-70 75 536
-70 75 534
-74 81 570
-77 85 594
-74 82 570
-74 82 568
-73 82 565
-74 83 572
-74 83 570
-74 83 567
-74 85 574
-74 85 572
-75 85 571
-74 84 566
-69 79 527
-67 76 508
-75 87 578
-75 87 576
-74 87 573
-74 87 570
-75 89 578
-73 87 565
-73 87 563
-74 87 562
-76 90 579
-75 90 576
-75 90 574
-75 90 571
-74 90 568
-72 87 547
-72 87 544
-76 93 580
-75 93 578
-71 86 537
-75 93 572
-74 93 570
-74 92 567
-76 96 585
-76 96 582
-76 96 579
-75 95 577
-75 95 574
-76 99 586
-76 98 584
-76 98 581
-75 98 578
-75 98 575
-75 98 573
-77 102 591
-77 101 588
-12 84 422
-12 84 421
-14 89 448
-78 105 600
-78 105 597
-77 105 594
-77 105 591
-77 104 588
-76 104 586
-76 104 583
-78 107 599
-78 107 597
-77 107 594
-77 107 591
-77 107 588
-74 103 567
-70 96 526
-69 96 524
-78 111 602
-78 111 599
-78 112 603
-78 112 600
-77 110 590
-79 113 606
-78 113 603
-78 113 600
-78 113 597
-79 115 605
-75 109 574
-75 109 571
-74 109 569
-79 117 610
-79 117 607
-68 113 570
-196 149 857
-198 145 843
-203 156 887
-202 156 881
-94 114 591
-133 111 615
-214 171 951
-219 172 959
-217 171 951
-190 162 884
-105 132 669
-80 125 614
-80 125 611
-80 125 608
-81 127 616
-79 124 602
-77 121 585
-77 121 582
-76 121 579
-81 130 622
-81 130 619
-81 130 616
-80 129 613
-80 129 610
-64 101 477
-82 132 619
-81 131 616
-79 128 600
-79 128 597
-79 128 594
-78 128 591
-74 119 551
-73 118 546
-73 118 543
-72 118 541
-86 145 660
-86 144 656
-86 144 653
-85 143 649
-82 138 622
-82 137 619
-84 142 639
-84 142 636
-83 142 633
-83 141 630
-83 141 627
-82 141 623
-88 152 670
-87 151 666
-87 151 663
-83 145 634
-48 75 334
-54 89 390
-85 149 649
-66 108 473
-84 149 642
-84 148 639
-84 148 636
-55 90 392
-88 158 673
-85 152 644
-84 151 641
-85 154 650
-84 153 644
-164 319 1321
-142 275 1135
-123 193 793
-87 167 668
-79 149 596
-80 149 597
-106 160 645
-295 313 1316
-102 199 767
-104 202 780
-103 202 775
-97 194 742
-83 164 628
-83 164 625
-85 170 646
-85 169 643
-84 169 639
-84 168 636
-85 171 645
-86 174 654
-86 173 651
-85 173 647
-87 173 648
-86 173 645
-83 165 617
-71 139 519
-87 177 658
-87 177 654
-86 176 651
-86 176 648
-87 179 657
-85 175 641
-88 181 663
-87 181 659
-87 180 656
-88 183 665
-88 183 662
-86 178 646
-89 186 670
-88 185 666
-88 184 663
-89 187 670
-88 186 667
-105 226 803
-107 230 817
-110 232 826
-110 231 821
-107 225 797
-103 216 765
-152 329 1158
-111 237 833
-111 238 834
-111 237 828
-110 236 823
-112 240 838
-111 239 832
-111 238 827
-113 243 842
-112 242 836
-111 241 831
-105 227 781
-104 226 777
-114 249 852
-114 248 850
-113 247 844
-112 246 838
-114 251 854
-113 250 848
-113 249 842
-115 254 858
-110 242 815
-109 240 807
-108 239 802
-108 238 797
-98 216 722
-98 215 718
-116 259 864
-116 258 859
-115 257 853
-116 261 865
-116 261 863
-118 266 879
-117 265 873
-117 264 867
-116 263 861
-117 267 873
-117 267 871
-109 247 805
-108 246 800
-121 280 905
-120 279 899
-107 258 829
-107 257 824
-106 256 818
-105 255 813
-105 254 808
-164 412 1306
-163 409 1293
-161 406 1280
-160 403 1268
-112 275 866
-111 273 860
-115 284 891
-114 282 885
-109 269 843
-108 268 837
-108 267 832
-107 266 827
-106 265 821
-117 292 905
-116 291 899
-115 289 893
-114 288 887
-114 286 881
-113 285 875
-116 295 903
-116 293 897
-115 292 890
-110 279 852
-110 278 846
-109 277 841
-108 276 835
-108 274 830
-131 341 1027
-143 352 1065
-142 350 1056
-114 278 839
-104 251 757
-97 247 739
-114 297 886
-127 314 939
-126 312 932
-125 310 925
-125 308 919
-120 296 882
-126 313 930
-125 312 924
-118 292 864
-117 291 859
-116 289 853
-116 288 848
-127 320 940
-127 318 933
-126 317 926
-128 323 944
-140 339 991
-123 310 902
-121 307 891
-121 306 885
-120 304 879
-119 302 873
-118 301 868
-52 116 339
-13 160 369
-119 44 904
-211 73 907
-66 59 509
-72 66 555
-71 66 553
-71 66 550
-71 66 548
-70 66 545
-70 66 543
-70 66 541
-72 69 557
-71 69 554
-71 69 552
-71 69 549
-72 70 558
-72 71 563
-72 71 561
-72 71 558
-72 71 556
-71 71 553
-72 72 560
-72 72 558
-70 71 546
-72 74 562
-72 74 560
-66 67 505
-72 74 555
-62 61 460
-58 58 435
-73 76 564
-72 76 561
-72 76 558
-72 76 556
-72 78 563
-72 78 559
-70 76 547
-74 79 568
-70 75 538
-70 75 537
-73 81 570
-73 81 568
-73 82 572
-73 82 569
-72 82 565
-73 83 572
-74 83 573
-74 83 570
-74 83 568
-74 85 575
-75 85 574
-74 85 571
-74 85 569
-69 79 528
-78 91 603
-75 87 579
-75 87 576
-74 87 574
-74 87 571
-75 89 579
-75 89 578
-74 87 565
-65 76 494
-73 87 560
-74 90 575
-74 90 573
-75 90 572
-74 90 569
-72 87 547
-71 87 545
-76 93 581
-75 93 578
-75 93 576
-75 93 573
-74 93 570
-74 93 568
-76 96 585
-76 96 583
-76 96 580
-75 96 577
-60 74 448
-77 99 590
-76 99 584
-76 98 581
-75 98 579
-74 98 574
-75 98 573
-77 102 591
-77 101 588
-75 101 584
-76 103 592
-12 89 442
-39 95 503
-77 105 596
-77 105 593
-77 105 592
-78 106 598
-77 106 595
-76 104 583
-78 108 600
-78 107 597
-77 107 594
-77 107 592
-77 107 589
-74 103 567
-69 96 527
-69 96 525
-69 96 522
-78 111 600
-78 111 597
-77 110 594
-77 110 591
-79 114 606
-78 113 603
-78 113 600
-78 113 597
-79 115 606
-75 109 575
-75 109 572
-74 109 569
-79 117 610
-79 117 607
-78 117 605
-78 117 602
-78 117 599
-77 116 596
-79 119 609
-79 119 606
-77 116 587
-76 116 585
-76 115 582
-76 115 579
-63 94 473
-63 94 469
-79 123 612
-79 123 609
-79 123 607
-78 123 604
-80 126 616
-79 125 613
-79 125 610
-79 125 607
-80 127 615
-72 124 593
-75 121 580
-69 118 563
-70 126 593
-215 182 963
-142 154 776
-81 130 615
-82 130 616
-12 103 433
-81 132 620
-46 66 317
-107 139 669
-104 138 661
-104 138 657
-96 127 604
-109 131 633
-95 126 598
-95 126 595
-86 145 660
-86 144 657
-85 144 654
-85 144 650
-82 138 623
-81 138 620
-84 143 640
-84 142 637
-83 142 634
-82 141 628
-82 141 625
-81 141 622
-88 152 671
-86 151 665
-83 145 636
-83 145 635
-83 145 632
-86 150 653
-80 139 603
-79 138 600
-84 149 643
-84 148 640
-84 148 637
-55 90 392
-88 159 678
-88 158 674
-88 158 670
-84 151 641
-85 154 651
-85 154 647
-84 153 642
-163 317 1311
-161 315 1298
-95 185 738
-90 173 691
-80 149 595
-131 172 710
-129 170 699
-197 198 841
-310 320 1351
-164 238 954
-102 198 764
-74 138 535
-83 165 632
-80 157 603
-83 164 626
-85 170 647
-85 169 644
-84 169 640
-84 168 637
-85 171 646
-86 174 655
-86 173 652
-85 173 648
-85 172 645
-85 172 642
-84 171 638
-70 139 518
-86 177 656
-86 177 653
-86 176 650
-85 176 646
-86 178 655
-84 175 640
-87 181 661
-86 180 655
-86 180 654
-89 184 668
-88 183 663
-86 179 647
-89 186 671
-88 185 667
-88 185 664
-89 187 671
-88 187 667
-89 190 677
-104 229 811
-105 228 810
-109 231 819
-106 224 795
-102 216 763
-111 237 836
-110 236 830
-110 237 832
-110 236 826
-109 235 821
-111 240 835
-110 239 830
-108 237 821
-110 241 836
-112 242 838
-111 241 832
-105 227 783
-104 226 778
-114 249 853
-114 249 851
-113 248 845
-112 246 840
-114 252 855
-113 250 849
-113 249 844
-115 254 859
-111 247 833
-109 240 808
-108 239 803
-108 238 798
-107 237 793
-125 281 939
-115 259 862
-116 259 860
-115 257 854
-116 262 866
-115 260 860
-117 266 876
-116 264 870
-115 263 864
-115 262 859
-117 267 875
-116 266 869
-116 266 867
-92 207 675
-18 232 686
-111 265 855
-121 281 907
-120 279 900
-114 265 853
-113 264 848
-110 260 835
-105 255 815
-105 254 809
-164 413 1309
-163 410 1296
-161 407 1283
-160 404 1271
-112 275 867
-111 274 861
-115 284 892
-114 283 886
-109 270 844
-108 269 839
-108 267 833
-107 266 828
-106 265 823
-116 293 907
-116 291 901
-115 290 894
-114 288 888
-114 287 882
-113 285 876
-116 295 904
-115 294 898
-111 281 859
-110 280 853
-109 279 848
-109 277 842
-108 276 837
-108 275 831
-131 341 1029
-130 339 1021
-129 337 1013
-105 270 811
-96 244 734
-97 247 740
-114 297 887
-116 303 904
-116 302 898
-115 300 892
-125 309 921
-127 316 939
-115 303 896
-115 302 890
-108 283 835
-107 282 829
-107 281 824
-128 321 944
-127 321 941
-127 319 935
-126 317 928
-52 115 342
-127 322 940
-131 331 963
-122 309 899
-121 308 893
-120 306 887
-120 304 881
-119 303 875
-118 301 869
-51 115 336
-13 160 369
-66 59 510
-66 59 508
-71 66 556
-71 66 554
-71 66 551
-71 66 549
-70 66 546
-70 66 544
-70 66 541
-72 69 557
-71 69 555
-71 69 552
-71 69 550
-75 74 587
-72 71 564
-72 71 561
-72 71 559
-72 71 556
-72 72 563
-72 72 561
-72 72 558
-70 71 546
-72 74 563
-72 74 560
-72 74 558
-67 69 519
-76 79 593
-60 61 456
-60 61 455
-72 76 564
-72 76 562
-72 76 559
-72 76 557
-71 76 554
-71 76 552
-71 76 549
-72 79 564
-72 79 563
-69 75 536
-73 81 573
-73 81 570
-73 82 572
-73 82 570
-73 82 567
-74 83 574
-73 83 572
-73 83 569
-71 81 552
-74 85 574
-73 84 571
-73 84 569
-73 84 566
-68 79 527
-77 91 602
-66 76 506
-66 76 504
-73 87 573
-73 87 570
-73 87 567
-74 89 575
-72 87 562
-72 87 560
-59 69 449
-73 87 558
-72 87 555
-74 90 572
-72 87 550
-72 87 548
-71 87 545
-76 93 582
-75 93 579
-75 93 576
-75 93 574
-74 93 571
-74 93 568
-76 96 586
-76 96 583
-75 96 581
-75 96 578
-56 68 413
-77 99 590
-76 99 588
-75 98 583
-76 98 582
-74 98 575
-77 102 595
-77 102 592
-76 101 587
-76 101 586
-75 101 582
-74 99 569
-72 97 557
-78 106 605
-76 105 593
-77 106 600
-77 106 597
-77 106 596
-76 104 584
-78 108 601
-77 107 598
-77 107 595
-76 107 590
-77 107 589
-74 103 568
-69 96 527
-69 96 525
-78 111 603
-78 111 600
-77 111 597
-77 111 595
-77 110 592
-79 114 607
-78 113 604
-78 113 601
-78 113 598
-77 113 595
-75 109 575
-75 109 573
-74 109 570
-79 117 611
-79 117 608
-78 117 605
-78 117 602
-78 117 599
-77 116 597
-77 116 594
-77 116 591
-76 116 588
-76 116 585
-76 115 583
-75 115 580
-63 94 473
-63 94 471
-63 94 469
-79 123 613
-79 123 610
-79 123 607
-78 123 604
-78 123 601
-79 125 613
-79 125 610
-79 125 607
-77 122 594
-76 121 587
-76 121 584
-76 121 582
-75 121 579
-80 130 621
-80 130 620
-78 129 613
-80 130 614
-79 129 609
-79 129 606
-80 131 616
-51 79 372
-77 127 592
-77 127 589
-72 118 546
-237 208 1038
-235 207 1029
-230 204 1013
-220 200 986
-218 199 978
-217 198 970
-190 187 901
-87 152 669
-86 151 666
-83 145 637
-82 145 634
-82 144 631
-82 144 628
-81 144 624
-85 149 647
-53 86 378
-84 149 641
-52 86 375
-54 90 392
-87 158 673
-87 158 669
-87 153 649
-85 152 643
-85 154 648
-84 153 645
-85 156 652
-90 173 689
-78 148 589
-131 173 716
-87 168 650
-83 165 638
-80 158 610
-83 165 633
-80 158 604
-79 157 601
-85 170 648
-85 169 644
-84 169 641
-85 172 650
-85 171 647
-86 174 656
-86 174 652
-85 173 649
-85 173 646
-84 172 642
-84 172 639
-70 139 519
-86 177 657
-86 177 654
-85 176 650
-85 176 647
-86 179 656
-87 182 666
-87 181 662
-86 181 659
-86 180 655
-87 183 665
-87 182 661
-85 178 645
-88 186 669
-87 185 666
-87 184 662
-88 187 670
-87 186 666
-90 193 689
-90 193 686
-89 192 682
-104 228 806
-106 225 796
-102 216 764
-111 238 837
-110 237 832
-110 237 833
-110 236 828
-109 235 822
-111 240 837
-110 239 831
-109 238 826
-111 243 841
-111 242 835
-110 241 830
-104 227 781
-103 226 776
-112 248 851
-112 248 849
-112 247 843
-111 246 838
-113 251 853
-113 251 851
-110 248 838
-113 249 844
-103 226 763
-111 246 829
-107 238 801
-108 238 799
-106 236 791
-124 282 941
-115 259 863
-114 258 858
-123 279 925
-115 262 868
-115 261 862
-117 266 878
-116 265 872
-115 264 866
-115 262 860
-117 268 876
-116 267 870
-115 265 864
-121 282 915
-121 281 908
-120 280 902
-114 265 855
-113 264 849
-113 263 844
-112 262 838
-111 260 833
-178 431 1371
-176 427 1356
-175 424 1342
-168 415 1310
-116 280 885
-116 279 879
-120 290 912
-114 283 888
-109 270 846
-108 269 840
-108 268 835
-107 266 829
-106 265 824
-116 293 909
-116 292 902
-115 290 896
-114 289 890
-113 287 884
-113 286 878
-116 296 906
-115 294 900
-111 282 860
-110 280 855
-109 279 849
-109 278 844
-108 276 838
-107 275 833
-107 274 827
-130 340 1023
-106 271 817
-105 270 812
-101 260 780
-120 304 912
-126 331 989
-119 306 915
-123 310 926
-116 302 898
-121 305 909
-119 296 881
-125 313 929
-124 311 922
-108 284 836
-107 282 831
-107 281 826
-118 312 914
-118 311 911
-109 265 781
-105 278 812
-117 313 911
-129 318 931
-120 320 927
-122 310 900
-111 298 861
-111 297 856
-110 295 850
-119 303 876
-118 302 871
-52 118 343
-13 160 370
-114 44 890
-72 66 562
-72 66 559
-71 66 557
-71 66 554
-71 66 552
-71 66 549
-70 66 547
-69 66 543
-70 66 542
-72 69 558
-71 69 554
-71 69 553
-71 69 551
-75 74 588
-72 71 565
-72 71 562
-71 71 558
-71 71 555
-72 72 562
-71 72 560
-71 72 557
-70 71 545
-72 74 562
-71 74 559
-72 74 558
-67 69 518
-60 61 458
-73 77 566
-72 76 560
-73 78 567
-72 78 564
-71 76 552
-71 76 550
-72 79 565
-72 79 562
-69 75 536
-68 75 532
-73 81 571
-73 82 573
-73 82 570
-73 82 568
-72 82 565
-73 83 571
-73 83 570
-71 81 553
-73 85 575
-73 85 572
-73 84 569
-70 81 543
-66 75 505
-77 91 603
-74 87 579
-66 76 504
-73 87 573
-73 87 571
-73 87 568
-72 87 565
-72 87 563
-74 90 580
-74 90 577
-59 69 447
-73 90 572
-73 90 569
-70 87 548
-70 87 545
-71 87 546
-74 93 579
-74 93 576
-73 93 574
-73 93 571
-73 92 568
-73 92 566
-75 96 583
-76 96 584
-75 96 581
-60 74 450
-76 99 591
-76 99 588
-76 99 586
-75 99 583
-75 98 580
-75 98 575
-77 102 593
-76 102 590
-76 101 587
-76 101 584
-72 97 560
-72 97 557
-76 106 602
-77 106 603
-77 106 600
-77 106 597
-75 104 586
-75 104 583
-77 108 600
-77 107 597
-76 107 594
-77 109 602
-76 107 588
-77 109 596
-73 103 564
-78 111 605
-77 111 602
-77 111 599
-77 111 596
-76 110 593
-77 110 592
-78 113 606
-77 113 603
-77 113 600
-78 115 608
-76 113 594
-74 109 574
-74 109 572
-74 109 571
-79 118 612
-79 117 609
-79 118 612
-78 117 603
-78 117 600
-77 116 597
-77 116 594
-77 116 592
-78 119 605
-71 108 546
-76 115 583
-71 107 541
-63 94 473
-63 94 472
-62 94 468
-79 123 611
-79 123 608
-78 123 605
-78 123 602
-79 125 614
-79 125 611
-79 125 608
-80 127 616
-76 121 588
-76 121 585
-76 121 582
-75 121 580
-80 130 622
-80 130 621
-80 130 618
-79 130 615
-80 132 623
-80 132 620
-80 131 617
-79 131 614
-80 133 623
-77 128 595
-61 98 456
-58 92 429
-72 118 547
-71 118 544
-85 145 665
-85 145 661
-84 144 658
-84 144 654
-81 138 626
-80 138 623
-80 137 620
-80 137 617
-82 142 637
-82 142 634
-81 141 631
-81 141 628
-81 141 625
-80 140 622
-86 151 668
-85 151 664
-82 145 636
-223 205 985
-235 217 1037
-88 159 676
-84 152 644
-90 155 659
-117 168 730
-214 218 997
-85 156 652
-151 188 829
-80 147 614
-88 172 683
-78 148 587
-79 148 588
-83 166 638
-84 166 637
-83 165 634
-83 165 631
-79 157 602
-84 170 646
-84 169 643
-83 169 640
-83 168 637
-84 171 645
-85 174 654
-85 173 651
-84 173 648
-85 173 647
-84 172 641
-81 165 615
-78 159 592
-86 178 658
-86 177 655
-85 176 651
-85 176 648
-86 179 657
-87 182 666
-87 181 663
-86 181 660
-86 180 656
-87 183 665
-87 183 662
-85 179 646
-88 186 670
-87 185 667
-87 185 663
-88 187 670
-87 186 667
-90 193 690
-88 189 673
-88 188 669
-87 188 666
-103 227 802
-98 214 753
-122 265 934
-111 239 840
-110 238 834
-109 237 829
-109 236 824
-111 240 838
-110 239 833
-109 238 827
-111 243 842
-110 242 837
-110 241 831
-104 227 782
-103 226 777
-112 249 852
-112 249 850
-111 247 845
-111 246 839
-113 251 854
-112 250 849
-111 249 843
-111 248 837
-110 247 832
-109 246 827
-106 238 799
-105 237 794
-105 236 789
-96 214 716
-122 280 931
-113 257 855
-115 263 871
-114 261 865
-112 259 855
-114 264 871
-113 263 865
-113 262 859
-112 261 854
-114 266 869
-113 265 864
-91 206 673
-127 294 953
-119 281 907
-118 279 901
-117 278 895
-112 264 848
-111 262 843
-110 261 837
-110 260 832
-109 259 827
-173 426 1355
-172 423 1341
-170 419 1327
-168 416 1313
-116 281 887
-116 279 881
-120 290 913
-119 289 907
-116 277 871
-115 276 865
-115 275 860
-114 273 854
-113 272 848
-124 302 938
-124 300 931
-123 298 925
-122 297 918
-121 295 912
-120 294 905
-124 304 935
-123 302 929
-118 289 887
-117 288 881
-114 284 866
-113 283 861
-113 281 855
-112 280 849
-111 279 844
-106 273 824
-106 272 818
-118 295 889
-104 255 769
-123 307 923
-103 253 760
-126 314 939
-125 312 933
-124 310 926
-123 309 919
-118 297 882
-125 314 931
-124 312 924
-116 292 865
-116 291 859
-115 289 853
-126 320 943
-126 320 940
-125 318 934
-97 244 714
-116 307 895
-126 328 954
-128 329 957
-112 300 869
-111 298 863
-110 297 857
-110 296 852
-109 294 846
-109 293 841
-13 160 370
-113 44 892
-73 61 572
-73 66 566
-73 66 563
-73 66 561
-72 66 558
-72 66 556
-72 66 553
-70 66 547
-70 66 545
-70 66 542
-71 69 557
-71 69 555
-71 69 554
-71 69 551
-75 74 589
-72 71 564
-71 71 561
-71 71 558
-71 71 556
-71 72 563
-71 72 560
-71 72 558
-70 71 546
-71 74 562
-71 74 560
-71 74 557
-60 61 459
-72 76 569
-72 76 566
-71 76 556
-70 76 554
-72 79 571
-72 79 568
-72 79 565
-71 79 563
-71 79 560
-71 79 558
-72 81 570
-73 82 574
-72 82 569
-72 82 567
-73 83 574
-72 83 571
-72 83 569
-70 81 552
-73 85 575
-73 85 572
-73 85 570
-70 81 543
-66 75 506
-74 87 582
-74 87 579
-74 87 577
-73 87 574
-74 89 581
-73 87 569
-72 87 566
-72 87 563
-74 90 581
-74 90 578
-73 90 575
-73 90 573
-73 90 570
-70 87 548
-70 87 546
-74 93 582
-74 93 580
-74 93 577
-74 94 584
-73 93 572
-73 92 569
-72 92 566
-74 96 584
-74 96 581
-74 95 578
-74 95 576
-75 98 585
-74 98 583
-74 98 580
-74 98 577
-73 98 574
-73 98 572
-75 101 590
-75 101 587
-76 102 588
-73 98 565
-72 97 559
-71 97 556
-76 105 596
-77 106 602
-75 106 597
-75 106 594
-77 110 614
-76 107 599
-75 107 597
-77 107 598
-76 107 595
-76 107 592
-76 107 589
-73 103 568
-69 96 527
-78 111 606
-77 111 603
-78 112 607
-77 111 597
-76 110 594
-76 110 591
-78 114 606
-77 113 604
-77 113 601
-78 115 609
-76 113 595
-74 109 575
-74 109 572
-74 109 571
-74 109 569
-78 117 608
-78 118 610
-77 117 602
-77 117 599
-76 116 596
-76 116 593
-76 116 590
-78 119 606
-76 116 587
-70 107 542
-71 107 541
-62 94 473
-63 94 472
-62 94 467
-78 123 609
-77 123 604
-77 122 601
-79 126 615
-78 125 610
-78 125 607
-79 127 617
-76 122 589
-76 121 586
-76 121 583
-75 121 579
-79 130 621
-80 130 622
-80 130 619
-79 130 614
-80 132 622
-80 132 621
-80 132 618
-79 131 615
-79 131 612
-77 128 596
-76 127 591
-76 127 590
-71 118 547
-71 118 545
-71 118 543
-85 145 662
-84 144 658
-84 144 655
-81 138 627
-80 138 624
-80 138 621
-80 137 618
-82 142 638
-82 142 635
-81 142 632
-81 141 629
-81 141 626
-80 141 622
-86 152 669
-85 151 665
-82 145 637
-82 145 633
-81 144 630
-81 144 627
-80 144 624
-83 149 645
-82 148 641
-82 148 638
-52 86 375
-86 158 672
-83 152 643
-82 151 640
-82 151 636
-250 233 1080
-236 227 1043
-226 223 1015
-206 219 985
-143 220 934
-77 148 585
-77 147 583
-78 148 583
-223 239 1001
-228 239 1003
-221 236 984
-117 183 723
-81 158 606
-84 170 647
-97 177 681
-83 169 641
-83 168 637
-84 171 646
-82 167 631
-85 174 652
-84 173 649
-84 172 645
-83 172 642
-80 165 614
-78 159 591
-85 177 657
-85 177 653
-84 176 650
-84 176 647
-85 179 656
-87 182 667
-87 181 664
-85 180 658
-85 180 655
-86 183 664
-86 182 661
-84 178 645
-87 185 669
-87 185 668
-87 185 664
-88 187 671
-87 187 668
-87 186 664
-88 189 674
-88 189 670
-87 188 667
-88 191 676
-98 216 763
-105 235 823
-109 237 832
-108 236 827
-108 235 821
-109 240 836
-109 239 830
-108 238 825
-110 242 840
-109 241 834
-109 240 829
-104 227 783
-103 226 778
-112 249 854
-112 249 852
-111 248 846
-111 247 840
-113 252 856
-112 250 850
-111 249 844
-111 248 839
-110 247 833
-109 246 828
-106 238 800
-105 237 795
-105 236 790
-96 214 717
-122 280 933
-121 279 926
-115 263 872
-114 262 867
-113 260 861
-113 259 855
-115 265 871
-114 263 865
-116 269 881
-115 268 875
-90 206 673
-120 275 898
-118 276 896
-119 281 909
-118 280 903
-117 278 896
-112 264 850
-111 263 844
-110 262 839
-110 260 833
-109 259 828
-174 428 1358
-172 424 1344
-170 420 1330
-169 417 1317
-116 281 888
-116 280 882
-120 291 915
-119 289 909
-113 275 865
-113 274 859
-112 273 853
-111 271 848
-111 270 842
-122 299 930
-121 298 924
-120 296 917
-119 295 911
-118 293 904
-118 292 898
-121 302 928
-120 300 921
-115 287 880
-117 288 882
-117 287 876
-116 285 870
-115 284 864
-114 283 859
-114 281 853
-113 280 848
-119 297 896
-105 256 774
-103 254 767
-123 308 925
-122 306 918
-126 314 941
-125 312 934
-103 256 764
-135 344 1023
-117 296 880
-124 314 932
-124 312 926
-116 293 866
-116 291 861
-115 290 855
-130 331 975
-126 321 942
-74 180 531
-119 317 926
-123 314 918
-129 331 966
-120 310 901
-119 308 895
-116 304 881
-110 297 859
-110 296 853
-109 295 848
-111 296 850
-13 160 370
-114 44 900
-113 44 893
-213 74 920
-67 61 532
-66 60 520
-65 59 511
-70 66 560
-70 66 557
-70 66 555
-70 66 552
-69 66 550
-69 66 547
-69 66 545
-68 66 542
-70 68 559
-70 68 556
-70 68 554
-69 69 551
-69 69 549
-73 74 586
-71 71 563
-70 71 560
-70 71 557
-70 71 555
-69 72 557
-68 72 554
-69 72 554
-70 73 561
-69 73 558
-69 73 556
-68 73 551
-65 70 524
-72 76 570
-74 77 572
-74 77 570
-73 77 565
-72 79 571
-72 79 569
-72 79 566
-71 79 563
-68 75 536
-71 79 558
-75 85 596
-72 82 573
-72 82 570
-73 83 577
-73 83 575
-72 83 572
-72 83 569
-73 85 577
-73 85 574
-72 84 571
-72 84 569
-69 81 542
-65 75 505
-73 87 581
-73 87 578
-73 87 576
-72 87 573
-72 87 570
-73 89 578
-73 89 575
-72 87 564
-74 90 582
-73 90 577
-73 90 574
-58 69 446
-70 86 547
-71 88 557
-74 93 586
-74 93 583
-74 93 580
-74 93 578
-74 94 585
-73 93 572
-73 93 570
-72 92 567
-74 96 585
-74 96 582
-74 96 579
-58 72 436
-75 99 586
-74 98 583
-74 98 581
-74 98 578
-73 98 575
-73 98 572
-73 98 570
-75 101 588
-76 103 595
-75 103 593
-73 98 563
-73 98 560
-71 97 554
-75 105 594
-75 104 591
-76 106 597
-77 110 614
-76 107 600
-76 107 599
-76 107 596
-75 107 593
-75 107 591
-73 103 569
-72 103 567
-68 96 526
-77 111 604
-76 111 602
-77 112 606
-77 112 603
-75 110 593
-76 111 594
-78 114 609
-78 114 606
-78 114 603
-79 115 611
-77 113 597
-75 110 577
-74 109 575
-74 109 572
-74 109 569
-78 118 610
-79 118 613
-77 117 603
-77 117 602
-76 116 597
-76 116 594
-78 120 609
-76 116 590
-76 116 587
-76 116 585
-71 107 542
-62 94 473
-62 94 471
-62 94 465
-77 123 605
-79 126 617
-78 125 614
-78 125 611
-79 127 619
-76 122 594
-76 122 589
-75 121 585
-75 121 582
-74 121 579
-80 131 624
-79 130 620
-79 130 615
-78 129 612
-79 132 623
-79 132 620
-80 134 628
-80 134 625
-78 131 611
-76 128 595
-76 127 592
-76 127 589
-71 118 548
-46 69 324
-85 145 666
-85 145 663
-84 145 659
-84 144 656
-81 138 628
-80 138 625
-80 138 622
-82 143 642
-82 142 639
-82 142 636
-81 142 633
-81 141 629
-80 141 626
-80 141 623
-85 152 670
-85 151 666
-82 145 637
-81 145 634
-81 144 631
-81 144 628
-80 144 625
-83 149 646
-82 149 642
-82 148 639
-82 148 636
-86 158 673
-86 158 669
-82 151 640
-82 151 637
-84 157 659
-84 156 655
-84 156 652
-83 155 649
-81 154 641
-79 147 611
-84 159 657
-75 157 641
-157 326 1277
-76 147 581
-78 147 581
-83 166 641
-82 166 638
-82 165 635
-81 165 631
-78 157 602
-78 157 599
-83 170 646
-83 169 643
-82 169 639
-82 168 636
-82 168 633
-81 167 630
-84 173 651
-75 168 624
-228 250 1014
-226 249 1006
-129 191 741
-107 156 606
-140 216 830
-85 177 654
-84 176 651
-84 176 647
-85 179 657
-83 175 641
-86 181 662
-85 181 659
-85 180 656
-86 183 665
-86 182 661
-84 178 646
-87 186 670
-86 185 666
-86 184 663
-87 187 670
-86 186 666
-86 186 663
-87 189 672
-87 188 669
-86 188 665
-87 191 675
-87 190 671
-82 179 633
-167 387 1352
-104 234 819
-104 233 814
-107 234 816
-109 240 837
-109 239 832
-108 238 826
-110 243 841
-109 242 836
-108 241 830
-103 227 781
-102 226 776
-111 248 851
-111 248 849
-110 247 844
-109 246 838
-114 257 875
-111 250 848
-111 250 846
-111 249 840
-110 247 835
-109 246 829
-106 238 802
-105 237 797
-105 236 792
-123 282 941
-113 259 864
-112 257 854
-113 262 870
-113 261 864
-112 260 858
-114 265 874
-115 265 872
-114 264 866
-116 269 883
-115 268 877
-91 206 676
-118 277 898
-119 281 911
-118 280 904
-117 279 898
-111 264 851
-111 263 846
-110 262 840
-109 261 835
-109 260 829
-174 429 1362
-172 425 1348
-170 421 1334
-117 283 896
-116 281 890
-116 280 884
-120 291 917
-119 289 910
-113 276 866
-113 275 860
-112 273 855
-111 272 849
-111 271 843
-121 300 932
-121 298 925
-120 297 919
-119 295 912
-118 294 906
-118 292 900
-121 302 929
-120 301 923
-115 288 881
-115 286 875
-114 285 869
-113 283 864
-113 282 858
-114 283 860
-114 282 855
-113 280 849
-120 298 902
-109 269 812
-103 255 768
-123 308 927
-122 307 920
-124 313 938
-101 250 750
-100 249 746
-122 308 918
-128 342 1013
-120 310 920
-122 312 923
-115 292 864
-114 290 858
-114 289 852
-128 330 972
-124 320 939
-74 180 532
-110 288 843
-118 309 902
-129 332 967
-120 310 903
-119 308 897
-118 307 891
-118 305 885
-117 304 879
-116 302 873
-116 301 867
-13 160 371
-114 44 902
-113 44 895
-67 61 533
-65 59 512
-70 66 560
-70 66 558
-70 66 555
-69 66 553
-69 66 550
-69 66 548
-69 66 545
-68 66 543
-70 68 559
-70 69 557
-70 69 554
-69 69 552
-74 74 589
-73 74 586
-71 71 563
-70 71 561
-70 71 558
-70 71 555
-71 72 563
-70 72 560
-70 72 557
-69 71 546
-71 74 562
-70 74 559
-67 70 531
-71 76 567
-71 75 565
-71 76 569
-71 76 566
-71 76 563
-70 76 561
-56 58 429
-70 79 566
-74 80 572
-72 79 566
-66 75 532
-65 75 528
-72 84 590
-74 84 585
-72 82 571
-72 82 568
-73 83 575
-72 83 573
-72 83 570
-73 85 577
-72 85 575
-72 85 572
-72 84 569
-69 81 543
-73 87 581
-73 87 582
-73 87 579
-73 87 576
-72 87 573
-72 87 571
-72 87 568
-73 89 576
-71 87 563
-73 90 580
-74 90 579
-73 90 575
-72 90 572
-72 90 570
-75 95 598
-74 93 585
-73 93 582
-73 93 579
-73 93 576
-72 93 574
-72 93 571
-72 92 568
-72 93 568
-74 96 585
-74 96 582
-74 96 580
-59 74 449
-75 99 592
-75 99 590
-74 99 587
-74 99 584
-74 98 581
-73 98 578
-73 98 576
-75 102 594
-73 98 570
-72 98 568
-75 103 593
-71 97 560
-71 97 558
-71 97 555
-75 105 594
-75 105 592
-75 104 589
-75 106 593
-77 110 612
-76 109 609
-77 109 608
-77 109 605
-76 109 602
-75 107 589
-72 103 567
-77 111 608
-67 96 524
-76 111 602
-76 111 599
-76 112 604
-75 110 594
-75 110 591
-77 114 606
-76 113 603
-76 113 600
-77 115 608
-75 113 594
-73 109 574
-73 109 572
-73 109 569
-72 109 567
-77 117 607
-77 118 610
-76 117 601
-78 120 615
-77 120 612
-77 119 609
-77 119 606
-76 119 603
-76 116 588
-75 116 585
-63 94 477
-63 94 475
-63 94 473
-62 94 471
-78 123 604
-79 126 616
-79 126 613
-78 125 610
-76 122 593
-76 122 590
-76 122 587
-75 121 584
-74 121 580
-79 131 624
-79 130 621
-79 130 616
-80 132 627
-80 132 626
-79 132 620
-80 134 629
-80 134 626
-79 133 623
-76 128 596
-76 128 593
-71 118 549
-71 118 547
-80 137 631
-80 137 627
-84 145 661
-83 144 658
-84 144 657
-81 138 629
-80 138 626
-80 138 623
-82 143 643
-82 143 640
-81 142 635
-80 141 631
-81 141 630
-80 141 627
-86 152 674
-85 152 671
-85 151 667
-82 145 638
-81 145 633
-80 144 630
-80 144 627
-79 143 623
-83 149 646
-82 149 643
-82 148 640
-82 148 637
-86 158 674
-85 158 670
-82 151 641
-82 151 638
-81 151 635
-84 156 656
-83 156 653
-83 155 649
-83 155 646
-82 155 643
-88 167 692
-88 166 688
-84 159 658
-154 321 1255
-76 146 576
-98 176 697
-78 162 626
-83 167 645
-82 166 642
-82 166 639
-82 165 635
-81 165 632
-78 157 603
-83 170 648
-83 170 647
-83 169 643
-82 169 640
-82 168 637
-82 168 634
-81 167 630
-84 173 651
-83 173 648
-83 172 645
-82 172 641
-79 165 613
-72 148 552
-87 184 682
-84 177 653
-83 176 649
-83 176 646
-84 178 655
-82 174 640
-76 175 636
-74 174 629
-74 174 626
-224 259 1013
-100 191 702
-84 179 646
-86 186 670
-86 185 667
-86 185 663
-85 184 660
-86 186 667
-86 186 664
-87 189 673
-86 188 670
-86 188 666
-87 191 676
-87 190 672
-82 180 634
-77 166 585
-104 233 815
-102 230 803
-105 237 824
-104 236 819
-103 235 813
-105 239 828
-109 242 837
-108 241 832
-102 227 782
-102 226 778
-111 249 853
-111 249 851
-110 247 845
-109 246 839
-114 258 877
-113 257 871
-110 249 843
-109 248 838
-111 253 853
-109 247 831
-106 239 803
-104 237 794
-103 236 789
-113 260 867
-112 259 861
-111 257 856
-113 263 871
-113 261 866
-112 260 860
-114 266 876
-113 264 870
-113 263 864
-115 269 880
-91 207 681
-125 296 966
-118 278 906
-116 276 895
-119 282 913
