168 168 676
171 171 686
170 170 682
166 166 665
172 172 689
172 172 685
171 171 681
163 163 648
163 163 644
162 162 641
176 176 694
176 176 690
175 175 687
178 178 697
181 181 707
174 174 676
180 180 700
180 180 696
179 179 692
179 179 688
178 178 685
170 170 653
177 177 677
137 137 527
183 183 697
183 183 694
186 186 704
185 185 700
181 181 682
188 188 707
187 187 703
187 187 699
186 186 695
189 189 706
189 189 702
184 184 684
176 176 654
191 191 707
190 190 700
193 193 709
192 192 705
188 188 689
195 195 711
194 194 707
193 193 704
194 194 705
197 197 716
194 194 701
190 190 683
182 182 656
170 170 612
199 199 715
199 199 711
201 201 717
197 197 704
204 204 724
203 203 720
202 202 716
202 202 712
205 205 723
200 200 704
199 199 700
192 192 674
192 192 670
132 132 465
170 170 592
156 156 543
155 155 540
208 208 719
123 123 427
636 636 2176
627 627 2140
538 538 1836
359 359 1226
246 246 854
227 227 771
429 429 1416
72 72 246
286 286 954
513 513 1698
520 520 1722
518 518 1715
297 297 984
281 281 928
279 279 922
278 278 915
276 276 909
275 275 902
274 274 896
294 294 960
250 250 817
209 209 683
127 127 417
209 209 680
300 300 970
307 307 990
307 307 988
305 305 980
290 290 929
309 309 988
307 307 981
284 284 905
283 283 899
281 281 893
318 318 1007
199 199 632
200 200 634
124 124 395
117 117 372
413 413 1298
397 397 1243
372 372 1155
300 300 935
298 298 928
381 381 1182
378 378 1171
375 375 1160
327 327 1012
339 339 1044
336 336 1036
322 322 989
323 323 991
321 321 984
319 319 976
317 317 969
315 315 962
314 314 955
352 352 1068
350 350 1060
347 347 1051
345 345 1043
355 355 1071
353 353 1062
351 351 1054
337 337 1010
335 335 1002
333 333 995
331 331 987
329 329 980
327 327 972
325 325 965
323 323 958
322 322 951
340 340 1002
241 241 710
119 119 353
60 60 607
60 60 603
61 61 606
61 61 603
61 61 600
59 59 574
61 61 631
59 59 568
58 58 556
65 65 606
56 56 512
64 64 584
64 64 581
70 70 625
70 70 622
103 103 903
1767 1767 15055
1583 1583 13419
70 70 609
71 71 616
66 66 559
66 66 556
71 71 594
71 71 592
71 71 589
60 60 496
60 60 494
80 80 650
77 77 622
77 77 619
77 77 616
77 77 612
78 78 621
76 76 599
76 76 596
80 80 623
80 80 620
76 76 587
76 76 585
82 82 629
82 82 625
98 98 737
97 97 727
351 351 2530
218 218 1600
76 76 570
76 76 570
80 80 574
81 81 569
85 85 617
76 76 555
76 76 551
76 76 545
76 76 540
76 76 537
87 87 608
87 87 605
87 87 602
89 89 606
78 78 537
85 85 576
89 89 588
85 85 570
87 87 590
93 93 625
93 93 621
99 99 690
91 91 600
225 225 1419
-143 -143 -878
-692 -692 -4279
73 73 495
94 94 610
93 93 607
98 98 653
83 83 513
101 101 646
107 107 694
106 106 685
100 100 627
104 104 649
106 106 658
104 104 642
104 104 639
100 100 614
100 100 611
108 108 658
108 108 655
109 109 662
107 107 645
107 107 641
111 111 662
111 111 658
113 113 668
113 113 664
112 112 661
112 112 657
108 108 629
126 126 729
116 116 673
116 116 670
116 116 666
116 116 663
118 118 672
118 118 669
117 117 665
117 117 662
117 117 658
112 112 621
122 122 670
121 121 667
121 121 663
121 121 660
124 124 676
124 124 673
126 126 683
123 123 665
126 126 675
125 125 672
119 119 636
119 119 633
95 95 507
95 95 505
62 62 331
77 77 407
96 96 508
135 135 703
134 134 697
140 140 739
139 139 735
-499 -499 -2512
-510 -510 -2563
-522 -522 -2615
126 126 644
125 125 636
136 136 690
136 136 686
94 94 467
93 93 460
93 93 460
132 132 646
144 144 699
143 143 695
143 143 691
152 152 732
152 152 728
145 145 694
151 151 720
144 144 689
147 147 697
149 149 708
149 149 704
149 149 700
149 149 698
139 139 652
151 151 705
151 151 701
153 153 710
152 152 706
118 118 550
154 154 703
150 150 673
146 146 652
146 146 649
146 146 645
151 151 667
151 151 664
150 150 660
150 150 657
91 91 400
161 161 701
155 155 674
155 155 670
153 153 662
156 156 669
155 155 666
153 153 654
159 159 679
158 158 676
158 158 672
158 158 669
149 149 630
149 149 629
169 169 711
162 162 679
161 161 675
161 161 671
164 164 681
163 163 678
163 163 674
165 165 684
165 165 680
165 165 677
164 164 673
156 156 638
155 155 635
151 151 614
169 169 686
168 168 682
168 168 678
171 171 688
170 170 685
170 170 681
173 173 691
172 172 687
172 172 684
171 171 680
163 163 646
162 162 643
170 170 669
176 176 693
176 176 691
175 175 688
179 179 698
178 178 694
174 174 677
181 181 701
180 180 697
179 179 693
179 179 689
178 178 686
170 170 654
164 164 628
142 142 545
137 137 525
183 183 695
186 186 705
185 185 701
185 185 697
188 188 708
187 187 704
187 187 700
186 186 696
189 189 707
189 189 703
184 184 685
177 177 655
191 191 708
191 191 704
193 193 712
193 193 708
189 189 693
196 196 715
195 195 711
194 194 707
194 194 703
193 193 699
196 196 710
196 196 706
184 184 664
200 200 718
199 199 714
198 198 710
200 200 716
208 208 742
203 203 723
203 203 718
202 202 714
201 201 710
204 204 719
202 202 709
200 200 701
190 190 665
198 198 694
202 202 704
170 170 593
169 169 590
130 130 454
155 155 539
207 207 716
123 123 426
629 629 2149
620 620 2114
631 631 2148
497 497 1689
252 252 871
217 217 735
274 274 927
101 101 345
528 528 1751
521 521 1728
299 299 994
298 298 986
281 281 930
280 280 923
278 278 917
299 299 984
298 298 976
296 296 969
279 279 911
210 210 688
127 127 417
208 208 676
207 207 672
309 309 998
308 308 990
292 292 938
290 290 931
289 289 925
309 309 988
285 285 907
283 283 901
282 282 894
338 338 1071
285 285 902
199 199 632
185 185 586
402 402 1262
414 414 1301
393 393 1229
390 390 1218
300 300 937
299 299 930
381 381 1184
379 379 1174
376 376 1163
328 328 1014
339 339 1046
337 337 1038
322 322 991
320 320 983
319 319 976
317 317 968
315 315 961
313 313 954
311 311 947
349 349 1059
347 347 1050
345 345 1042
342 342 1033
352 352 1061
354 354 1064
351 351 1056
337 337 1012
335 335 1004
333 333 997
332 332 989
330 330 982
328 328 974
326 326 967
324 324 960
322 322 953
322 322 950
180 180 534
119 119 354
60 60 601
60 60 598
61 61 606
61 61 603
61 61 600
59 59 574
72 72 932
59 59 569
64 64 583
68 68 615
64 64 579
70 70 620
70 70 619
70 70 616
70 70 611
74 74 642
74 74 639
66 66 568
66 66 557
71 71 595
71 71 592
74 74 612
60 60 496
80 80 654
77 77 626
77 77 623
77 77 619
77 77 616
77 77 613
78 78 622
83 83 690
76 76 595
76 76 588
76 76 585
82 82 629
82 82 626
82 82 623
98 98 736
98 98 732
84 84 631
83 83 610
-363 -363 -2611
86 86 634
86 86 628
-1003 -1003 -6840
62 62 455
62 62 454
76 76 555
76 76 552
76 76 550
89 89 632
67 67 480
88 88 626
88 88 621
90 90 629
92 92 640
92 92 637
92 92 634
87 87 602
87 87 600
87 87 598
87 87 595
95 95 640
94 94 637
94 94 633
94 94 628
94 94 625
93 93 618
96 96 633
93 93 612
81 81 534
87 87 569
95 95 620
93 93 600
63 63 409
96 96 589
99 99 622
106 106 686
97 97 594
97 97 583
97 97 580
97 97 577
100 100 612
100 100 609
108 108 657
101 101 589
102 102 595
101 101 585
111 111 657
113 113 669
113 113 665
112 112 659
112 112 658
106 106 620
115 115 669
116 116 674
116 116 671
116 116 667
116 116 663
118 118 673
117 117 667
113 113 642
117 117 660
117 117 657
113 113 635
112 112 616
121 121 664
121 121 661
124 124 677
124 124 674
126 126 684
124 124 666
126 126 676
126 126 673
119 119 637
119 119 634
95 95 509
95 95 506
62 62 332
62 62 331
96 96 508
134 134 699
146 146 758
136 136 707
192 192 1008
168 168 878
-315 -315 -1580
-512 -512 -2567
-506 -506 -2529
127 127 650
130 130 669
136 136 687
136 136 683
125 125 607
93 93 465
122 122 599
132 132 647
143 143 695
143 143 691
152 152 732
151 151 728
151 151 724
144 144 690
145 145 691
144 144 687
150 150 713
150 150 709
149 149 705
149 149 701
148 148 697
139 139 653
151 151 706
151 151 702
160 160 742
146 146 678
259 259 1328
147 147 660
150 150 669
146 146 653
146 146 649
152 152 672
151 151 668
151 151 665
150 150 661
150 150 658
91 91 400
161 161 702
154 154 670
154 154 667
154 154 663
156 156 673
156 156 669
152 152 653
158 158 675
158 158 672
157 157 668
149 149 632
149 149 628
148 148 625
169 169 709
161 161 677
161 161 673
160 160 670
163 163 680
163 163 676
162 162 672
165 165 682
164 164 676
164 164 673
163 163 669
155 155 634
155 155 636
151 151 615
169 169 687
168 168 683
168 168 679
171 171 689
170 170 685
170 170 682
173 173 692
172 172 688
172 172 684
171 171 681
163 163 647
163 163 644
170 170 670
176 176 694
176 176 690
175 175 686
178 178 696
178 178 693
174 174 675
180 180 699
180 180 695
179 179 691
178 178 688
178 178 684
170 170 652
164 164 627
137 137 527
183 183 697
182 182 693
186 186 703
186 186 702
184 184 696
188 188 706
188 188 705
187 187 701
186 186 697
190 190 708
189 189 704
184 184 686
177 177 656
192 192 709
191 191 705
194 194 713
193 193 709
189 189 694
196 196 716
195 195 712
194 194 708
194 194 704
197 197 715
197 197 711
192 192 693
184 184 665
200 200 719
199 199 715
199 199 711
201 201 717
204 204 728
204 204 724
203 203 720
202 202 715
201 201 711
205 205 722
200 200 704
199 199 700
199 199 696
215 215 753
219 219 765
212 212 735
214 214 743
196 196 680
127 127 442
137 137 476
154 154 535
122 122 425
122 122 423
614 614 2089
692 692 2350
493 493 1673
379 379 1291
229 229 777
215 215 727
188 188 594
341 341 1152
291 291 972
300 300 996
288 288 948
272 272 896
271 271 890
270 270 884
300 300 986
298 298 978
296 296 971
279 279 913
127 127 419
305 305 986
303 303 979
310 310 1000
308 308 992
292 292 940
291 291 933
312 312 997
313 313 1000
340 340 1095
306 306 975
318 318 1010
341 341 1080
285 285 903
317 317 1001
406 406 1277
403 403 1265
381 381 1189
394 394 1232
302 302 945
301 301 939
385 385 1198
382 382 1187
380 380 1176
377 377 1166
329 329 1016
340 340 1048
338 338 1040
323 323 992
321 321 985
319 319 977
317 317 970
315 315 963
314 314 956
312 312 949
350 350 1061
347 347 1052
345 345 1044
343 343 1035
353 353 1063
351 351 1055
349 349 1046
335 335 1003
333 333 996
331 331 988
329 329 981
327 327 973
325 325 966
323 323 959
322 322 952
320 320 945
322 322 952
180 180 535
119 119 354
60 60 602
60 60 599
61 61 607
61 61 604
61 61 601
59 59 575
74 74 754
69 69 652
65 65 609
65 65 602
68 68 612
70 70 623
70 70 620
70 70 617
70 70 612
75 75 690
71 71 615
71 71 612
71 71 609
71 71 606
61 61 524
62 62 522
71 71 597
74 74 617
71 71 591
74 74 610
80 80 655
77 77 627
77 77 623
77 77 620
77 77 617
78 78 626
78 78 621
78 78 617
77 77 593
86 86 662
83 83 633
82 82 624
82 82 621
98 98 733
100 100 745
96 96 702
-99 -99 -693
-95 -95 -668
86 86 629
-465 -465 -3296
-495 -495 -3471
62 62 452
81 81 589
93 93 666
89 89 636
89 89 633
89 89 630
90 90 639
88 88 623
88 88 620
92 92 641
92 92 638
92 92 635
88 88 604
66 66 459
69 69 478
95 95 646
95 95 643
88 88 593
97 97 649
94 94 631
94 94 628
94 94 625
98 98 648
93 93 610
92 92 592
98 98 638
98 98 635
262 262 1668
152 152 968
101 101 636
100 100 633
100 100 628
100 100 625
104 104 646
103 103 638
103 103 635
99 99 608
99 99 609
99 99 602
107 107 649
99 99 602
64 64 388
63 63 378
111 111 650
112 112 653
108 108 638
108 108 635
115 115 667
116 116 673
116 116 669
116 116 666
116 116 662
118 118 672
118 118 671
117 117 665
117 117 661
117 117 658
117 117 654
113 113 630
97 97 542
121 121 661
124 124 678
124 124 674
127 127 685
126 126 678
126 126 675
126 126 674
119 119 638
119 119 634
110 110 583
95 95 506
62 62 332
77 77 408
76 76 402
134 134 700
134 134 696
134 134 697
137 137 714
167 167 871
165 165 857
226 226 1339
-521 -521 -2606
-474 -474 -2363
-385 -385 -1911
146 146 753
136 136 684
135 135 678
127 127 618
137 137 676
136 136 672
133 133 656
133 133 652
132 132 649
158 158 769
144 144 698
143 143 694
152 152 736
152 152 732
151 151 727
145 145 693
144 144 690
144 144 686
150 150 711
149 149 707
149 149 703
148 148 699
148 148 695
139 139 651
151 151 704
160 160 744
147 147 685
158 158 724
147 147 661
147 147 657
150 150 667
146 146 650
152 152 673
151 151 669
151 151 666
151 151 662
150 150 659
91 91 401
162 162 703
155 155 671
154 154 667
154 154 664
156 156 674
156 156 670
159 159 680
158 158 676
158 158 673
157 157 669
149 149 632
149 149 629
161 161 678
169 169 710
162 162 678
161 161 674
161 161 671
163 163 681
163 163 677
163 163 673
165 165 683
165 165 680
164 164 676
156 156 641
156 156 637
155 155 634
176 176 718
169 169 685
168 168 681
168 168 678
171 171 688
170 170 684
166 166 667
173 173 690
172 172 687
171 171 680
163 163 647
162 162 643
163 163 645
176 176 693
176 176 695
176 176 691
175 175 687
178 178 697
178 178 693
174 174 676
180 180 700
180 180 696
179 179 692
171 171 660
171 171 656
170 170 653
164 164 628
137 137 527
183 183 698
183 183 694
186 186 704
185 185 701
185 185 697
188 188 707
187 187 703
187 187 699
187 187 698
189 189 706
189 189 702
185 185 687
177 177 657
192 192 710
191 191 706
194 194 714
193 193 710
197 197 721
196 196 717
195 195 713
195 195 709
198 198 720
197 197 716
197 197 712
192 192 694
170 170 615
200 200 720
200 200 716
199 199 712
198 198 708
205 205 729
204 204 725
203 203 721
202 202 717
202 202 712
205 205 723
200 200 705
200 200 701
199 199 697
221 221 771
220 220 766
217 217 756
214 214 744
213 213 739
168 168 585
237 237 818
137 137 474
154 154 532
122 122 423
122 122 421
601 601 2041
599 599 2031
633 633 2141
402 402 1374
249 249 856
215 215 724
252 252 829
175 175 552
341 341 1155
299 299 995
290 290 957
288 288 950
273 273 898
271 271 892
270 270 886
290 290 948
288 288 941
272 272 886
206 206 674
204 204 660
293 293 944
302 302 976
211 211 681
307 307 989
292 292 937
290 290 930
102 102 332
102 102 331
292 292 931
205 205 656
284 284 902
286 286 907
285 285 901
115 115 367
404 404 1272
404 404 1268
398 398 1247
395 395 1235
303 303 947
301 301 940
386 386 1201
383 383 1190
380 380 1179
378 378 1169
329 329 1018
340 340 1050
338 338 1042
323 323 994
321 321 987
320 320 979
318 318 972
316 316 965
314 314 958
312 312 951
350 350 1063
348 348 1054
346 346 1046
344 344 1038
354 354 1066
351 351 1057
337 337 1013
335 335 1005
333 333 998
331 331 990
330 330 983
328 328 975
326 326 968
324 324 961
322 322 954
320 320 947
320 320 944
180 180 532
119 119 354
61 61 608
61 61 601
59 59 577
59 59 577
-91 -91 -880
-67 -67 -574
63 63 585
65 65 603
70 70 621
70 70 614
70 70 614
71 71 619
71 71 616
71 71 609
71 71 606
72 72 614
72 72 611
71 71 597
71 71 598
74 74 617
74 74 614
76 76 620
77 77 625
77 77 624
77 77 619
77 77 616
78 78 626
78 78 621
81 81 675
77 77 604
77 77 601
60 60 474
77 77 588
86 86 656
77 77 582
84 84 636
84 84 631
97 97 722
-94 -94 -668
-97 -97 -681
-99 -99 -690
354 354 2538
-405 -405 -2860
76 76 550
62 62 453
88 88 634
89 89 637
67 67 483
90 90 643
90 90 637
90 90 636
88 88 621
92 92 642
92 92 639
92 92 635
87 87 603
72 72 489
95 95 640
89 89 602
97 97 646
94 94 629
94 94 625
94 94 622
98 98 646
93 93 612
-146 -146 -890
-126 -126 -789
94 94 607
273 273 1735
86 86 550
102 102 647
60 60 387
103 103 650
101 101 634
100 100 631
104 104 652
104 104 649
104 104 646
104 104 642
100 100 615
100 100 612
108 108 660
104 104 618
65 65 386
106 106 623
106 106 620
98 98 572
114 114 664
116 116 669
116 116 665
115 115 662
115 115 654
117 117 663
116 116 655
117 117 661
117 117 657
100 100 564
112 112 626
105 105 570
105 105 568
105 105 565
115 115 609
115 115 606
132 132 725
134 134 743
131 131 716
123 123 659
119 119 636
119 119 633
189 189 995
168 168 884
129 129 681
62 62 331
76 76 400
121 121 610
123 123 618
123 123 617
76 76 397
180 180 928
185 185 954
166 166 867
192 192 1112
-383 -383 -1904
-390 -390 -1932
145 145 750
135 135 679
138 138 692
127 127 616
127 127 615
140 140 697
140 140 691
139 139 687
133 133 654
133 133 653
133 133 650
123 123 602
144 144 699
143 143 695
153 153 737
152 152 733
152 152 728
145 145 694
151 151 720
144 144 687
150 150 712
149 149 708
149 149 704
149 149 700
148 148 696
139 139 652
151 151 705
160 160 745
161 161 746
161 161 742
158 158 721
147 147 656
150 150 668
146 146 651
152 152 674
152 152 670
151 151 667
151 151 663
150 150 660
91 91 401
155 155 675
155 155 672
154 154 668
154 154 665
157 157 675
156 156 671
159 159 681
158 158 677
158 158 674
158 158 670
149 149 633
149 149 630
161 161 679
169 169 711
162 162 679
161 161 675
161 161 672
159 159 662
160 160 665
159 159 661
166 166 684
165 165 681
165 165 677
156 156 641
156 156 638
144 144 589
177 177 719
169 169 686
168 168 682
168 168 679
171 171 689
170 170 685
166 166 668
173 173 691
172 172 688
172 172 684
171 171 680
163 163 647
162 162 643
177 177 697
176 176 693
176 176 689
175 175 685
178 178 696
177 177 692
173 173 675
180 180 698
179 179 695
179 179 691
171 171 658
170 170 653
169 169 649
163 163 624
137 137 525
182 182 694
183 183 698
186 186 705
185 185 702
189 189 712
188 188 708
187 187 704
187 187 700
186 186 697
189 189 707
189 189 703
184 184 685
192 192 712
191 191 708
191 191 704
194 194 713
190 190 697
196 196 720
196 196 716
195 195 712
194 194 708
198 198 718
193 193 700
196 196 710
192 192 692
170 170 614
200 200 718
203 203 727
199 199 713
198 198 709
205 205 730
204 204 726
203 203 722
203 203 718
206 206 729
201 201 710
200 200 706
200 200 702
217 217 760
221 221 772
219 219 764
212 212 738
205 205 711
207 207 717
167 167 578
228 228 787
231 231 795
129 129 447
136 136 471
204 204 701
122 122 420
595 595 2018
593 593 2008
591 591 1998
503 503 1699
368 368 1239
227 227 775
233 233 783
208 208 684
672 672 2424
300 300 997
290 290 959
288 288 952
273 273 900
272 272 893
270 270 887
290 290 950
274 274 894
207 207 678
125 125 412
295 295 953
293 293 946
292 292 939
298 298 958
297 297 951
292 292 939
281 281 896
67 67 219
102 102 329
201 201 639
200 200 636
115 115 367
408 408 1284
958 958 3220
409 409 1284
305 305 956
303 303 949
302 302 942
387 387 1204
384 384 1193
381 381 1182
378 378 1171
330 330 1020
341 341 1053
339 339 1044
324 324 996
322 322 989
320 320 981
318 318 974
317 317 967
315 315 960
353 353 1074
351 351 1065
349 349 1057
347 347 1048
357 357 1077
354 354 1068
352 352 1059
338 338 1015
336 336 1008
334 334 1000
332 332 992
330 330 985
328 328 977
326 326 970
324 324 963
323 323 956
321 321 949
289 289 854
180 180 533
119 119 353
61 61 609
59 59 580
74 74 762
-1349 -1349 -12643
-58 -58 -528
-60 -60 -536
1085 1085 9494
67 67 634
64 64 579
66 66 586
70 70 614
70 70 611
71 71 618
71 71 615
71 71 610
72 72 618
72 72 615
72 72 612
71 71 598
71 71 595
74 74 616
74 74 613
60 60 495
77 77 626
77 77 621
77 77 618
78 78 626
78 78 627
78 78 618
77 77 603
81 81 668
76 76 598
76 76 595
83 83 631
83 83 628
84 84 637
84 84 634
97 97 723
97 97 719
-95 -95 -671
-96 -96 -675
-97 -97 -678
-473 -473 -3342
82 82 598
62 62 453
67 67 483
90 90 642
90 90 638
90 90 635
88 88 620
92 92 641
92 92 640
92 92 634
87 87 600
86 86 582
88 88 592
97 97 647
97 97 644
94 94 626
98 98 648
98 98 644
271 271 1749
-125 -125 -786
-133 -133 -825
-133 -133 -823
93 93 603
271 271 1717
103 103 659
60 60 389
60 60 387
60 60 386
62 62 398
104 104 653
104 104 650
104 104 646
104 104 643
104 104 640
100 100 613
108 108 661
101 101 596
98 98 576
115 115 667
99 99 578
116 116 669
116 116 665
120 120 689
118 118 671
117 117 668
117 117 664
117 117 661
100 100 567
112 112 631
112 112 623
111 111 612
110 110 609
113 113 606
124 124 671
124 124 667
125 125 671
71 71 387
125 125 668
132 132 726
126 126 689
387 387 2335
155 155 791
119 119 608
119 119 605
64 64 341
118 118 593
123 123 616
123 123 613
73 73 366
160 160 795
165 165 852
170 170 886
137 137 694
-163 -163 -910
-421 -421 -2085
140 140 707
130 130 637
138 138 689
140 140 699
140 140 698
140 140 692
139 139 688
133 133 655
133 133 652
133 133 651
123 123 602
144 144 700
153 153 742
153 153 738
152 152 734
152 152 729
145 145 695
148 148 706
144 144 688
150 150 713
150 150 709
149 149 705
149 149 701
139 139 656
139 139 653
161 161 751
119 119 556
162 162 752
162 162 748
147 147 661
147 147 658
146 146 652
149 149 661
145 145 645
151 151 667
150 150 664
149 149 656
147 147 644
136 136 595
90 90 394
163 163 717
162 162 713
161 161 706
161 161 702
156 156 673
156 156 669
159 159 679
158 158 676
158 158 672
157 157 669
149 149 632
156 156 662
161 161 678
165 165 695
168 168 706
161 161 674
161 161 670
163 163 680
160 160 665
166 166 689
166 166 685
165 165 681
165 165 678
164 164 674
156 156 639
144 144 589
177 177 720
169 169 687
169 169 683
168 168 679
171 171 690
170 170 686
167 167 669
173 173 692
172 172 688
172 172 685
171 171 681
163 163 647
170 170 674
177 177 698
176 176 694
176 176 690
175 175 686
178 178 697
178 178 693
174 174 675
180 180 699
180 180 696
179 179 692
171 171 659
178 178 684
170 170 652
142 142 546
184 184 701
183 183 697
186 186 708
186 186 704
185 185 700
188 188 711
188 188 707
187 187 703
186 186 699
186 186 695
188 188 703
188 188 699
183 183 681
176 176 652
191 191 704
190 190 700
193 193 708
190 190 698
195 195 715
195 195 711
195 195 713
194 194 709
198 198 719
193 193 701
193 193 697
192 192 693
170 170 615
200 200 719
202 202 725
199 199 711
198 198 707
204 204 728
204 204 724
203 203 720
202 202 716
201 201 712
150 150 531
200 200 704
218 218 765
222 222 778
221 221 773
220 220 769
215 215 747
207 207 720
206 206 716
128 128 445
224 224 774
230 230 793
229 229 788
222 222 763
243 243 831
582 582 1972
574 574 1942
578 578 1953
565 565 1905
569 569 1915
663 663 2234
426 426 1432
215 215 724
310 310 1036
259 259 848
303 303 1012
300 300 999
296 296 981
289 289 954
273 273 901
272 272 895
271 271 889
291 291 952
274 274 896
208 208 679
126 126 413
208 208 679
296 296 955
297 297 957
300 300 970
296 296 953
297 297 953
296 296 946
281 281 898
100 100 324
199 199 633
129 129 410
114 114 364
419 419 1323
403 403 1266
390 390 1221
295 295 921
293 293 914
292 292 908
370 370 1148
368 368 1138
365 365 1128
363 363 1118
318 318 980
329 329 1010
327 327 1002
313 313 958
323 323 991
321 321 983
319 319 976
317 317 969
315 315 961
354 354 1076
352 352 1068
349 349 1059
347 347 1050
357 357 1079
355 355 1070
353 353 1062
339 339 1017
337 337 1010
335 335 1002
333 333 994
331 331 987
329 329 979
327 327 972
325 325 965
323 323 958
321 321 951
289 289 855
180 180 533
61 61 609
59 59 581
122 122 1248
-57 -57 -521
-65 -65 -626
-230 -230 -2239
67 67 602
67 67 599
65 65 584
65 65 591
71 71 629
71 71 622
71 71 619
71 71 615
71 71 612
72 72 621
72 72 618
71 71 603
71 71 600
74 74 620
74 74 617
60 60 500
60 60 496
77 77 628
77 77 625
77 77 622
77 77 618
78 78 627
78 78 624
78 78 621
77 77 606
77 77 601
81 81 665
77 77 595
76 76 592
76 76 583
63 63 481
77 77 584
84 84 634
84 84 630
98 98 727
97 97 723
390 390 2816
383 383 2753
-99 -99 -687
96 96 698
81 81 590
89 89 633
90 90 642
90 90 639
88 88 624
67 67 475
92 92 642
92 92 638
92 92 635
87 87 601
87 87 598
87 87 587
88 88 595
88 88 590
97 97 645
95 95 629
98 98 651
94 94 619
272 272 1755
269 269 1731
-126 -126 -790
-130 -130 -808
-128 -128 -800
272 272 1723
101 101 647
105 105 658
104 104 654
104 104 651
104 104 647
63 63 393
106 106 653
100 100 613
99 99 608
104 104 626
101 101 592
65 65 386
99 99 576
99 99 573
120 120 690
70 70 405
117 117 669
117 117 665
117 117 661
117 117 658
113 113 634
113 113 630
112 112 627
112 112 622
122 122 674
121 121 670
103 103 570
124 124 672
126 126 682
106 106 573
126 126 675
123 123 658
119 119 636
119 119 633
173 173 913
192 192 1034
126 126 660
94 94 493
119 119 603
90 90 460
63 63 330
64 64 338
77 77 405
126 126 649
131 131 672
99 99 509
131 131 669
173 173 874
164 164 829
174 174 892
-390 -390 -1865
138 138 687
141 141 703
138 138 684
138 138 680
153 153 785
153 153 777
151 151 766
132 132 647
123 123 587
133 133 649
144 144 702
144 144 698
153 153 741
152 152 736
152 152 732
151 151 728
145 145 694
147 147 704
147 147 700
150 150 711
149 149 707
149 149 706
149 149 702
148 148 698
148 148 694
162 162 753
148 148 665
147 147 662
147 147 659
147 147 655
149 149 665
152 152 674
151 151 671
151 151 667
151 151 664
150 150 660
139 139 609
155 155 672
154 154 669
154 154 665
156 156 675
156 156 672
155 155 666
157 157 671
155 155 658
154 154 654
171 171 742
161 161 700
148 148 611
152 152 625
162 162 682
168 168 723
161 161 675
148 148 602
150 150 610
160 160 664
166 166 687
165 165 684
165 165 680
164 164 676
164 164 673
156 156 638
151 151 617
176 176 718
169 169 685
168 168 682
171 171 692
171 171 688
170 170 684
173 173 694
173 173 691
172 172 687
172 172 683
171 171 680
163 163 646
170 170 672
176 176 696
176 176 695
176 176 691
175 175 687
178 178 698
178 178 694
174 174 676
180 180 700
180 180 697
179 179 693
171 171 660
178 178 685
170 170 653
142 142 547
184 184 702
183 183 698
186 186 709
186 186 705
181 181 687
188 188 712
188 188 708
187 187 704
187 187 700
190 190 710
189 189 706
189 189 703
177 177 658
176 176 655
191 191 708
191 191 704
193 193 712
189 189 696
196 196 719
195 195 715
195 195 711
194 194 707
198 198 718
193 193 699
192 192 695
192 192 692
170 170 614
200 200 718
172 172 617
198 198 707
197 197 703
203 203 724
204 204 725
203 203 721
202 202 717
151 151 534
201 201 709
201 201 708
218 218 766
222 222 776
221 221 774
221 221 770
215 215 748
207 207 721
207 207 717
168 168 585
226 226 781
224 224 771
223 223 766
229 229 785
233 233 798
222 222 758
153 153 523
586 586 1981
578 578 1952
571 571 1922
563 563 1894
656 656 2205
570 570 1913
330 330 1127
522 522 1740
406 406 1323
247 247 807
263 263 861
301 301 1001
299 299 993
297 297 985
281 281 930
277 277 914
276 276 908
296 296 973
274 274 897
208 208 680
126 126 413
306 306 994
306 306 992
304 304 984
311 311 1005
309 309 997
307 307 989
290 290 933
286 286 917
204 204 655
201 201 642
124 124 398
430 430 1357
403 403 1268
420 420 1327
385 385 1204
305 305 957
295 295 922
294 294 916
292 292 909
371 371 1151
369 369 1140
366 366 1131
364 364 1121
319 319 982
329 329 1012
327 327 1004
313 313 960
312 312 953
310 310 946
308 308 939
306 306 932
305 305 925
341 341 1032
339 339 1023
336 336 1015
334 334 1007
344 344 1034
342 342 1026
340 340 1018
339 339 1020
337 337 1012
335 335 1004
333 333 996
331 331 988
329 329 981
327 327 974
326 326 966
324 324 959
322 322 952
290 290 857
180 180 534
61 61 610
59 59 585
108 108 1046
-1286 -1286 -12061
-75 -75 -725
-229 -229 -2230
74 74 743
70 70 666
194 194 1697
65 65 612
65 65 596
66 66 581
71 71 623
71 71 616
72 72 625
72 72 622
73 73 618
71 71 604
71 71 601
74 74 621
71 71 595
60 60 498
60 60 496
77 77 629
77 77 626
77 77 622
78 78 631
78 78 628
78 78 625
78 78 622
77 77 607
77 77 608
81 81 665
77 77 593
78 78 601
69 69 487
64 64 481
64 64 479
82 82 607
97 97 714
97 97 710
82 82 598
82 82 595
81 81 591
91 91 652
89 89 639
89 89 635
90 90 644
90 90 641
88 88 625
76 76 540
92 92 644
92 92 638
92 92 637
92 92 634
91 91 628
91 91 625
93 93 666
94 94 635
81 81 488
87 87 590
64 64 431
95 95 630
98 98 651
94 94 621
94 94 616
270 270 1736
94 94 610
-127 -127 -794
-132 -132 -819
-125 -125 -773
101 101 648
101 101 640
105 105 656
104 104 653
104 104 649
106 106 655
106 106 652
100 100 612
99 99 609
107 107 652
106 106 640
105 105 624
95 95 556
98 98 561
101 101 578
118 118 669
67 67 388
120 120 676
119 119 672
113 113 634
113 113 631
112 112 628
122 122 678
112 112 622
122 122 671
121 121 667
103 103 568
72 72 397
120 120 653
108 108 584
71 71 388
126 126 672
119 119 637
190 190 1004
142 142 751
129 129 683
129 129 682
95 95 500
123 123 633
124 124 636
95 95 494
75 75 391
132 132 680
126 126 647
105 105 541
79 79 407
173 173 873
164 164 824
136 136 685
141 141 708
141 141 704
141 141 703
140 140 699
140 140 695
139 139 689
136 136 671
133 133 652
132 132 644
132 132 646
143 143 693
142 142 689
151 151 730
151 151 726
144 144 692
150 150 718
143 143 685
146 146 695
138 138 649
143 143 672
143 143 668
143 143 665
142 142 661
142 142 658
160 160 749
146 146 662
148 148 670
148 148 666
148 148 663
147 147 659
150 150 669
149 149 665
152 152 675
152 152 672
151 151 668
151 151 665
150 150 661
115 115 505
155 155 673
154 154 670
154 154 666
157 157 676
156 156 672
153 153 656
159 159 679
158 158 675
158 158 671
157 157 668
149 149 631
-1376 -1376 -5695
160 160 675
158 158 657
166 166 687
165 165 683
165 165 680
164 164 676
163 163 668
153 153 625
153 153 622
173 173 702
172 172 698
165 165 667
161 161 645
164 164 654
163 163 651
163 163 647
166 166 657
165 165 653
181 181 730
172 172 684
171 171 680
163 163 647
170 170 673
177 177 697
176 176 693
176 176 690
175 175 686
178 178 696
178 178 692
173 173 675
180 180 699
179 179 695
179 179 691
171 171 659
178 178 684
170 170 654
138 138 530
184 184 703
183 183 699
187 187 710
186 186 706
182 182 688
189 189 713
188 188 709
187 187 705
187 187 701
190 190 711
189 189 707
189 189 704
177 177 659
184 184 682
192 192 709
191 191 705
194 194 713
190 190 697
196 196 720
196 196 716
195 195 712
194 194 708
198 198 719
193 193 700
192 192 696
192 192 693
170 170 614
200 200 719
172 172 620
201 201 720
198 198 707
204 204 727
203 203 723
203 203 719
202 202 715
201 201 711
202 202 713
219 219 772
219 219 768
223 223 780
222 222 776
221 221 771
208 208 726
207 207 722
207 207 718
128 128 446
128 128 445
226 226 778
299 299 1026
229 229 786
228 228 781
230 230 789
245 245 845
300 300 1020
299 299 1012
567 567 1910
565 565 1901
558 558 1874
551 551 1847
540 540 1803
524 524 1746
518 518 1722
289 289 966
303 303 1011
301 301 1003
300 300 995
298 298 987
281 281 931
280 280 925
278 278 918
283 283 932
254 254 836
127 127 421
210 210 687
325 325 1057
306 306 994
304 304 986
311 311 1007
310 310 999
308 308 991
292 292 939
282 282 901
311 311 997
293 293 936
291 291 929
290 290 922
201 201 642
127 127 406
431 431 1360
409 409 1289
411 411 1294
386 386 1207
305 305 959
301 301 942
294 294 917
293 293 911
372 372 1153
369 369 1143
367 367 1133
364 364 1123
332 332 1022
330 330 1014
328 328 1006
314 314 962
312 312 954
310 310 947
309 309 941
307 307 934
305 305 927
341 341 1034
339 339 1026
337 337 1017
335 335 1010
345 345 1036
342 342 1028
340 340 1020
327 327 979
325 325 972
323 323 965
322 322 957
320 320 950
318 318 944
316 316 937
315 315 930
313 313 923
311 311 917
290 290 858
119 119 355
61 61 603
59 59 586
107 107 1026
-1914 -1914 -17972
159 159 1507
-366 -366 -3383
-633 -633 -5825
-157 -157 -1506
117 117 1146
-69 -69 -582
-70 -70 -585
65 65 587
65 65 584
61 61 543
71 71 621
72 72 624
72 72 620
72 72 617
71 71 605
71 71 602
66 66 557
71 71 596
60 60 501
60 60 499
60 60 495
77 77 627
77 77 624
78 78 632
78 78 629
78 78 623
78 78 620
80 80 631
77 77 608
77 77 591
77 77 588
77 77 585
58 58 442
62 62 466
82 82 609
86 86 631
82 82 603
82 82 596
82 82 593
89 89 643
89 89 639
89 89 636
90 90 645
90 90 642
90 90 638
90 90 635
88 88 616
88 88 613
88 88 610
88 88 607
88 88 604
80 80 581
70 70 501
95 95 641
94 94 624
83 83 560
81 81 537
94 94 615
94 94 612
93 93 607
265 265 1695
259 259 1643
245 245 1548
199 199 1242
101 101 641
104 104 656
105 105 657
100 100 629
106 106 663
106 106 656
115 115 704
108 108 665
108 108 661
108 108 658
108 108 654
109 109 662
104 104 618
94 94 551
97 97 559
101 101 576
67 67 388
67 67 386
119 119 673
117 117 656
113 113 630
113 113 629
122 122 679
122 122 675
121 121 669
121 121 666
103 103 567
124 124 679
124 124 678
120 120 654
65 65 372
74 74 415
71 71 387
120 120 644
175 175 927
130 130 688
129 129 684
129 129 680
95 95 497
127 127 660
99 99 516
76 76 394
126 126 646
126 126 643
102 102 522
79 79 406
81 81 412
136 136 686
66 66 340
66 66 336
65 65 331
65 65 330
140 140 696
134 134 664
133 133 659
133 133 655
133 133 652
122 122 600
144 144 702
143 143 698
153 153 740
146 146 705
145 145 701
151 151 727
145 145 693
147 147 704
144 144 685
150 150 711
149 149 707
149 149 703
148 148 696
148 148 692
161 161 750
155 155 703
148 148 671
148 148 667
148 148 664
147 147 660
150 150 670
149 149 666
152 152 676
152 152 673
151 151 669
151 151 665
150 150 662
115 115 505
155 155 674
155 155 671
154 154 667
154 154 664
156 156 673
153 153 657
159 159 680
158 158 676
158 158 672
149 149 635
161 161 682
159 159 660
160 160 663
166 166 687
165 165 683
165 165 679
164 164 676
156 156 640
156 156 637
177 177 722
176 176 717
169 169 685
168 168 681
171 171 691
171 171 687
170 170 684
173 173 694
172 172 690
171 171 684
163 163 650
170 170 677
169 169 668
175 175 689
175 175 688
174 174 684
172 172 671
175 175 681
174 174 677
174 174 673
173 173 664
172 172 660
168 168 639
167 167 636
171 171 660
178 178 685
177 177 681
138 138 529
184 184 701
183 183 698
186 186 708
186 186 704
181 181 686
188 188 711
188 188 707
187 187 703
186 186 699
190 190 712
190 190 708
185 185 688
177 177 658
199 199 739
192 192 710
191 191 706
194 194 714
190 190 698
197 197 721
196 196 717
195 195 713
195 195 709
198 198 720
193 193 701
193 193 697
171 171 618
201 201 724
200 200 720
169 169 609
202 202 721
198 198 708
204 204 729
204 204 724
203 203 720
202 202 716
202 202 712
219 219 772
217 217 764
217 217 760
218 218 764
222 222 777
216 216 755
208 208 727
207 207 720
190 190 659
128 128 446
227 227 784
226 226 779
223 223 768
229 229 787
228 228 782
227 227 777
232 232 790
231 231 786
241 241 818
152 152 518
121 121 414
560 560 1881
553 553 1854
4003 4003 14229
535 535 1785
289 289 966
287 287 959
301 301 1002
299 299 994
297 297 987
296 296 979
279 279 924
278 278 917
291 291 957
284 284 934
213 213 701
127 127 422
206 206 672
326 326 1059
305 305 990
303 303 983
311 311 1004
303 303 975
307 307 988
291 291 936
312 312 1001
302 302 963
309 309 986
285 285 910
284 284 904
305 305 969
416 416 1319
413 413 1305
410 410 1292
430 430 1362
308 308 968
306 306 961
304 304 954
303 303 947
301 301 940
381 381 1185
370 370 1146
367 367 1136
365 365 1126
332 332 1024
330 330 1016
328 328 1008
314 314 963
313 313 956
311 311 949
309 309 942
307 307 936
306 306 929
342 342 1036
340 340 1028
338 338 1020
336 336 1012
345 345 1038
343 343 1030
341 341 1022
328 328 981
326 326 974
324 324 966
322 322 959
320 320 952
319 319 945
317 317 939
315 315 932
313 313 925
312 312 919
236 236 696
118 118 350
62 62 680
61 61 612
59 59 579
107 107 1028
107 107 1020
-3750 -3750 -34795
255 255 2373
-281 -281 -2569
-215 -215 -1955
70 70 655
-61858 -61858 -555137
-65 -65 -557
-70 -70 -587
64 64 564
65 65 599
65 65 582
65 65 579
68 68 597
66 66 570
66 66 514
61 61 538
62 62 539
75 75 690
72 72 613
72 72 610
71 71 603
71 71 600
71 71 597
74 74 617
76 76 627
76 76 625
77 77 628
77 77 625
77 77 622
78 78 631
79 79 632
78 78 624
75 75 594
79 79 622
80 80 627
77 77 606
81 81 653
77 77 586
77 77 583
77 77 580
77 77 572
82 82 600
82 82 601
76 76 557
89 89 641
76 76 553
89 89 637
91 91 646
90 90 643
90 90 639
78 78 550
88 88 617
88 88 614
88 88 615
88 88 608
88 88 605
88 88 609
77 77 528
95 95 640
94 94 626
89 89 599
94 94 616
94 94 613
94 94 610
93 93 607
249 249 1586
101 101 650
103 103 658
103 103 656
103 103 653
101 101 637
105 105 659
104 104 656
104 104 652
106 106 662
106 106 658
115 115 711
115 115 707
108 108 663
108 108 660
108 108 656
108 108 653
107 107 647
116 116 721
107 107 640
102 102 597
98 98 587
63 63 366
120 120 674
119 119 668
127 127 707
122 122 681
112 112 624
122 122 674
123 123 677
121 121 667
125 125 684
125 125 680
124 124 676
120 120 653
67 67 380
73 73 396
121 121 644
175 175 929
130 130 688
130 130 685
127 127 667
123 123 627
127 127 657
128 128 658
76 76 393
76 76 391
126 126 640
126 126 641
96 96 487
66 66 337
140 140 697
134 134 663
133 133 660
133 133 656
133 133 653
122 122 601
144 144 703
144 144 699
153 153 741
152 152 737
146 146 702
145 145 698
151 151 724
147 147 705
144 144 686
150 150 712
149 149 708
149 149 704
149 149 700
161 161 756
156 156 707
155 155 703
148 148 669
148 148 666
147 147 662
147 147 661
147 147 655
149 149 665
152 152 675
151 151 671
151 151 667
151 151 664
139 139 612
91 91 402
155 155 675
155 155 672
157 157 681
157 157 678
153 153 661
156 156 671
159 159 681
158 158 677
230 230 1083
161 161 684
154 154 642
160 160 664
166 166 688
165 165 684
165 165 680
164 164 677
156 156 641
156 156 638
177 177 723
151 151 614
169 169 686
168 168 682
171 171 692
171 171 688
167 167 671
173 173 695
173 173 691
172 172 687
172 172 684
163 163 650
163 163 646
177 177 700
177 177 696
176 176 693
175 175 689
175 175 685
178 178 695
177 177 692
181 181 702
180 180 698
179 179 694
179 179 691
170 170 656
170 170 652
177 177 677
137 137 527
183 183 697
181 181 688
185 185 704
184 184 695
179 179 677
184 184 691
183 183 687
183 183 684
201 201 767
200 200 756
199 199 751
185 185 689
177 177 659
192 192 712
191 191 708
194 194 716
193 193 712
189 189 696
196 196 719
196 196 715
195 195 711
194 194 707
194 194 703
193 193 700
192 192 696
171 171 617
208 208 751
200 200 721
200 200 717
202 202 723
205 205 734
205 205 730
204 204 725
203 203 721
134 134 476
202 202 713
219 219 773
218 218 765
217 217 761
221 221 773
217 217 758
84 84 296
132 132 462
132 132 461
128 128 447
226 226 782
224 224 771
223 223 766
229 229 785
228 228 780
227 227 775
226 226 771
225 225 766
224 224 762
218 218 741
151 151 515
121 121 412
3239 3239 11486
548 548 1834
547 547 1826
289 289 968
288 288 960
301 301 1004
300 300 996
298 298 989
296 296 981
294 294 974
293 293 966
283 283 933
254 254 837
127 127 422
211 211 693
203 203 664
308 308 1000
306 306 992
313 313 1013
311 311 1006
309 309 998
307 307 990
306 306 983
296 296 948
311 311 996
285 285 909
286 286 912
284 284 905
182 182 582
117 117 377
414 414 1309
393 393 1236
390 390 1224
308 308 970
306 306 963
305 305 956
303 303 948
301 301 942
386 386 1203
384 384 1192
381 381 1181
332 332 1027
343 343 1061
341 341 1052
339 339 1044
324 324 996
319 319 978
317 317 971
315 315 963
313 313 956
312 312 949
349 349 1061
340 340 1030
338 338 1022
336 336 1014
346 346 1040
344 344 1032
342 342 1024
328 328 983
326 326 976
325 325 968
323 323 961
321 321 954
319 319 947
317 317 940
316 316 934
314 314 927
314 314 924
178 178 526
118 118 350
55 55 646
60 60 612
60 60 608
60 60 605
60 60 602
55 55 543
59 59 580
59 59 577
69 69 672
107 107 1013
-2095 -2095 -19340
252 252 2338
-79 -79 -709
-218 -218 -1979
-117 -117 -1049
-62 -62 -545
8989 8989 79858
-71 -71 -589
-731 -731 -6166
65 65 596
65 65 577
74 74 642
71 71 615
72 72 620
72 72 617
71 71 602
71 71 599
71 71 596
68 68 572
60 60 499
76 76 625
76 76 620
77 77 625
77 77 622
76 76 615
78 78 623
78 78 624
57 57 461
75 75 592
79 79 619
79 79 618
77 77 596
77 77 601
77 77 584
76 76 574
76 76 571
86 86 637
86 86 634
79 79 581
76 76 557
89 89 642
89 89 639
89 89 635
89 89 632
91 91 643
90 90 638
90 90 635
88 88 616
66 66 467
88 88 606
87 87 603
88 88 606
88 88 603
77 77 526
80 80 571
102 102 711
96 96 636
94 94 629
79 79 525
67 67 442
94 94 610
94 94 607
228 228 1454
101 101 651
101 101 648
101 101 644
103 103 654
101 101 638
105 105 660
105 105 656
104 104 653
106 106 663
106 106 659
63 63 397
115 115 704
108 108 660
110 110 668
108 108 658
117 117 735
107 107 647
107 107 641
107 107 638
110 110 649
98 98 585
114 114 649
102 102 580
119 119 671
123 123 688
122 122 682
123 123 685
123 123 682
123 123 678
121 121 668
125 125 685
125 125 681
124 124 677
96 96 524
96 96 521
72 72 391
131 131 723
120 120 642
130 130 689
129 129 681
148 148 807
127 127 659
122 122 621
126 126 652
126 126 649
125 125 632
79 79 399
140 140 698
134 134 662
133 133 658
133 133 655
133 133 654
122 122 601
154 154 751
154 154 746
153 153 742
146 146 707
146 146 703
145 145 699
145 145 695
148 148 706
144 144 687
150 150 713
149 149 709
149 149 705
148 148 696
147 147 672
156 156 708
155 155 704
149 149 673
148 148 667
148 148 665
148 148 662
150 150 672
150 150 668
152 152 678
152 152 672
151 151 668
151 151 665
139 139 613
155 155 674
154 154 670
154 154 667
154 154 663
151 151 651
153 153 656
159 159 679
70 70 337
162 162 689
149 149 632
156 156 661
153 153 630
156 156 643
156 156 642
144 144 592
151 151 618
169 169 690
169 169 687
168 168 683
171 171 693
171 171 689
167 167 672
173 173 696
173 173 692
172 172 688
172 172 684
163 163 650
163 163 647
177 177 701
177 177 697
176 176 694
176 176 690
175 175 686
178 178 696
178 178 693
181 181 703
180 180 699
180 180 695
179 179 691
171 171 659
170 170 656
164 164 630
138 138 529
184 184 701
183 183 697
186 186 707
186 186 704
181 181 686
188 188 710
188 188 706
187 187 702
186 186 699
190 190 709
188 188 703
184 184 685
175 175 650
190 190 702
189 189 699
192 192 707
189 189 693
186 186 682
192 192 699
187 187 675
186 186 672
189 189 681
177 177 629
176 176 626
192 192 697
171 171 618
201 201 723
200 200 719
202 202 725
201 201 721
205 205 732
204 204 728
203 203 724
134 134 477
134 134 477
233 233 833
220 220 774
218 218 767
217 217 762
221 221 774
220 220 770
215 215 751
158 158 554
139 139 493
223 223 771
222 222 766
222 222 761
227 227 780
227 227 775
227 227 777
231 231 790
226 226 770
224 224 763
219 219 742
151 151 515
19918 19918 71953
557 557 1868
540 540 1806
291 291 977
290 290 969
288 288 962
302 302 1006
300 300 998
298 298 990
297 297 983
295 295 975
293 293 968
284 284 935
213 213 701
210 210 689
204 204 665
305 305 992
303 303 984
311 311 1005
309 309 997
307 307 989
101 101 331
101 101 330
297 297 955
294 294 943
293 293 936
286 286 913
306 306 975
184 184 588
416 416 1316
415 415 1312
334 334 1032
310 310 979
309 309 972
304 304 955
303 303 948
301 301 941
302 302 943
387 387 1206
384 384 1195
382 382 1184
332 332 1030
344 344 1063
341 341 1054
339 339 1046
324 324 998
322 322 990
320 320 983
319 319 975
317 317 968
315 315 961
354 354 1076
351 351 1067
349 349 1058
347 347 1050
357 357 1078
355 355 1070
352 352 1061
338 338 1017
336 336 1009
331 331 991
329 329 983
327 327 976
325 325 968
324 324 961
316 316 935
314 314 929
314 314 926
178 178 527
118 118 350
59 59 682
57 57 609
57 57 606
60 60 620
60 60 609
60 60 604
60 60 603
59 59 578
59 59 575
70 70 669
106 106 1007
-2393 -2393 -21981
-2930 -2930 -26756
-118 -118 -1055
-219 -219 -1983
120 120 1174
117 117 1135
6039 6039 53400
-71 -71 -591
747 747 6290
68 68 617
66 66 591
71 71 633
71 71 619
72 72 621
71 71 606
71 71 603
71 71 600
71 71 597
68 68 573
76 76 626
78 78 643
77 77 628
77 77 625
78 78 633
78 78 626
78 78 627
78 78 622
57 57 460
60 60 478
75 75 587
76 76 590
77 77 594
77 77 599
76 76 569
67 67 487
88 88 633
88 88 628
89 89 633
91 91 644
90 90 639
87 87 611
77 77 541
76 76 536
68 68 496
87 87 597
94 94 642
94 94 641
88 88 605
88 88 602
88 88 599
82 82 554
101 101 708
94 94 630
97 97 643
81 81 541
60 60 398
101 101 652
102 102 653
101 101 645
101 101 642
105 105 664
105 105 661
105 105 657
107 107 667
106 106 664
106 106 658
106 106 656
63 63 396
65 65 404
110 110 669
108 108 659
107 107 673
117 117 732
108 108 649
116 116 718
115 115 711
110 110 655
96 96 524
97 97 548
97 97 546
113 113 630
122 122 681
123 123 684
123 123 680
123 123 677
121 121 666
124 124 681
124 124 677
103 103 561
96 96 521
72 72 392
120 120 640
129 129 707
130 130 688
-422 -422 -2179
134 134 707
144 144 778
127 127 656
109 109 518
94 94 494
126 126 650
126 126 647
94 94 485
124 124 621
141 141 700
140 140 696
134 134 663
133 133 659
133 133 656
133 133 652
122 122 600
154 154 749
153 153 745
153 153 740
146 146 705
145 145 701
145 145 697
148 148 708
147 147 704
150 150 715
150 150 711
149 149 707
75 75 362
158 158 747
148 148 697
147 147 668
155 155 704
155 155 700
148 148 669
148 148 665
147 147 662
150 150 671
149 149 668
149 149 664
152 152 674
151 151 670
151 151 667
151 151 663
132 132 580
92 92 406
155 155 677
155 155 671
154 154 667
154 154 664
156 156 674
153 153 657
-908 -908 -3798
156 156 661
156 156 658
152 152 623
144 144 591
170 170 692
176 176 718
169 169 685
168 168 681
171 171 691
168 168 676
174 174 701
174 174 697
173 173 693
172 172 689
172 172 685
164 164 651
163 163 648
177 177 702
177 177 698
176 176 695
179 179 705
175 175 687
178 178 697
181 181 708
181 181 704
180 180 700
180 180 696
179 179 692
179 179 689
178 178 685
164 164 631
184 184 706
184 184 702
183 183 698
186 186 708
186 186 705
181 181 687
188 188 711
188 188 707
187 187 703
190 190 714
190 190 710
189 189 706
177 177 662
177 177 658
192 192 711
191 191 707
194 194 716
193 193 712
189 189 696
196 196 719
195 195 715
195 195 711
198 198 719
197 197 715
196 196 711
191 191 693
170 170 615
198 198 713
198 198 709
200 200 715
192 192 680
195 195 690
195 195 687
185 185 645
126 126 441
229 229 820
221 221 780
220 220 775
219 219 771
218 218 766
222 222 779
221 221 774
216 216 753
215 215 748
132 132 461
251 251 880
230 230 794
229 229 789
229 229 784
228 228 779
228 228 781
231 231 788
229 229 780
224 224 761
223 223 756
72 72 252
566 566 1902
569 569 1912
293 293 986
292 292 979
290 290 971
288 288 964
302 302 1008
301 301 1000
299 299 992
297 297 985
295 295 977
286 286 943
256 256 845
127 127 423
86 86 287
272 272 888
204 204 668
307 307 999
305 305 991
304 304 983
309 309 999
309 309 997
66 66 217
295 295 943
307 307 979
197 197 629
117 117 376
419 419 1329
438 438 1393
395 395 1242
308 308 971
306 306 964
305 305 957
303 303 950
301 301 943
300 300 936
384 384 1194
381 381 1183
378 378 1172
330 330 1021
341 341 1053
339 339 1045
324 324 997
322 322 989
320 320 982
318 318 974
316 316 967
317 317 970
316 316 963
354 354 1078
352 352 1069
350 350 1060
348 348 1052
358 358 1081
355 355 1072
353 353 1063
339 339 1019
337 337 1011
335 335 1003
333 333 995
331 331 988
329 329 980
327 327 973
325 325 966
323 323 959
323 323 956
180 180 536
119 119 355
57 57 610
57 57 607
58 58 613
63 63 697
60 60 621
60 60 618
60 60 607
60 60 602
60 60 599
55 55 539
59 59 583
62 62 642
70 70 676
106 106 1000
106 106 992
1280 1280 11656
-61 -61 -537
-121 -121 -1071
-231 -231 -2062
74 74 727
4558 4558 40113
755 755 6367
96 96 824
77 77 594
66 66 589
72 72 621
71 71 607
71 71 604
74 74 624
71 71 598
60 60 502
76 76 627
76 76 624
77 77 629
77 77 625
78 78 634
78 78 631
321 321 2511
-99 -99 -756
77 77 610
60 60 478
76 76 590
82 82 631
86 86 664
77 77 589
77 77 586
81 81 647
89 89 642
89 89 638
89 89 635
88 88 630
90 90 639
90 90 633
90 90 628
87 87 609
92 92 640
76 76 533
70 70 484
96 96 655
95 95 645
95 95 642
95 95 638
88 88 597
95 95 640
86 86 605
100 100 641
103 103 657
101 101 641
105 105 663
105 105 659
104 104 656
106 106 666
106 106 662
106 106 659
63 63 393
60 60 378
65 65 405
65 65 404
65 65 403
110 110 666
108 108 656
108 108 653
117 117 729
108 108 646
111 111 660
120 120 737
106 106 630
94 94 509
98 98 578
68 68 391
113 113 637
97 97 546
113 113 631
122 122 682
123 123 685
123 123 681
123 123 677
123 123 674
125 125 684
125 125 680
120 120 656
99 99 540
96 96 519
104 104 561
71 71 386
119 119 636
190 190 1003
142 142 778
-377 -377 -1948
-429 -429 -2207
131 131 689
131 131 685
132 132 686
124 124 628
124 124 627
94 94 485
94 94 479
137 137 685
140 140 696
140 140 692
133 133 659
133 133 655
133 133 656
123 123 604
122 122 601
154 154 750
153 153 746
153 153 741
146 146 706
146 146 702
145 145 698
148 148 709
147 147 705
150 150 716
150 150 712
120 120 571
159 159 753
159 159 748
136 136 621
147 147 669
155 155 705
155 155 701
148 148 670
148 148 666
147 147 663
150 150 672
150 150 669
149 149 665
152 152 675
151 151 671
151 151 668
151 151 664
139 139 613
162 162 705
155 155 673
154 154 669
154 154 666
157 157 676
156 156 672
151 151 645
-1078 -1078 -4503
156 156 662
171 171 742
155 155 655
151 151 621
170 170 693
177 177 719
176 176 715
168 168 682
171 171 692
167 167 675
174 174 699
173 173 695
173 173 691
172 172 688
172 172 684
163 163 650
163 163 647
177 177 701
177 177 697
176 176 693
179 179 703
175 175 686
179 179 698
182 182 709
181 181 705
181 181 701
180 180 697
179 179 693
179 179 690
178 178 686
143 143 550
185 185 707
184 184 703
183 183 699
187 187 709
186 186 706
182 182 688
189 189 712
188 188 708
187 187 704
187 187 700
190 190 711
189 189 707
178 178 662
177 177 659
177 177 656
191 191 708
194 194 717
193 193 713
197 197 724
196 196 720
196 196 716
195 195 712
198 198 723
198 198 718
193 193 700
192 192 696
171 171 617
200 200 722
200 200 718
202 202 724
201 201 720
205 205 731
204 204 727
203 203 723
180 180 641
233 233 840
221 221 781
220 220 777
219 219 772
218 218 767
218 218 763
159 159 560
216 216 754
198 198 689
132 132 462
128 128 448
67 67 237
243 243 844
230 230 790
229 229 785
228 228 781
277 277 946
231 231 789
230 230 784
224 224 762
71 71 247
565 565 1899
685 685 2330
566 566 1900
294 294 988
292 292 981
291 291 973
289 289 966
303 303 1010
301 301 1002
299 299 994
298 298 987
296 296 979
286 286 945
214 214 707
128 128 424
259 259 849
271 271 886
304 304 989
317 317 1030
306 306 993
304 304 985
304 304 980
308 308 993
125 125 404
203 203 649
118 118 379
